21.20 21.57 22.22 23.06 24.00 24.96 25.87 26.68 27.36 27.87 28.23 28.47 28.65 28.85 29.14 29.54 30.06 30.68 31.34 31.97 32.52 32.96 33.33 33.67 34.02 34.33 34.56 34.68 34.73 34.82 35.04 35.46 36.02 36.62 37.09 37.31 37.25 36.93 36.41 35.77 35.07 34.34 33.66 33.11 32.72 32.50 32.38 32.21 31.90 31.38 30.69 29.93 29.17 28.43 27.68 26.84 25.88 24.79 23.61 22.42 21.35 20.51 20.01 19.92 20.20 20.78 21.56 22.47 23.51 24.72 26.08 27.52 28.93 30.22 31.33 32.30 33.17 33.99 34.80 35.62 36.42 37.16 37.79 38.31 38.71 39.01 39.22 39.35 39.41 39.41 39.37 39.29 39.17 39.05 38.97 38.90 38.79 38.58 38.23 37.80 37.32 36.85 36.39 35.97 35.60 35.29 35.04 34.84 34.66 34.53 34.43 34.37 34.32 34.25 34.13 33.91 33.58 33.11 32.53 31.87 31.12 30.33 29.54 28.81 28.19 27.66 27.20 26.79 26.42 26.06 25.64 25.14 24.56 23.93 23.32 22.79 22.41 22.18 22.05 21.94 21.78 21.54 21.26 21.01 20.86 20.88 21.14 21.64 22.36 23.22 24.13 25.03 25.89 26.71 27.52 28.33 29.11 29.85 30.52 31.10 31.59 31.99 32.33 32.66 33.03 33.46 33.93 34.38 34.66 34.63 34.13 33.14 31.73 30.09 28.42 26.86 25.47 24.28 23.27 22.41 21.66 20.95 20.24 19.55 18.94 18.50 18.26 18.19 18.17 18.10 17.84 17.33 16.58 15.65 14.70 13.91 13.43 13.31 13.43 13.58
21.84 22.17 22.79 23.60 24.51 25.44 26.33 27.13 27.80 28.31 28.68 28.92 29.11 29.31 29.57 29.92 30.38 30.91 31.50 32.09 32.63 33.12 33.56 34.00 34.43 34.82 35.09 35.23 35.26 35.29 35.44 35.78 36.31 36.93 37.48 37.81 37.85 37.59 37.09 36.40 35.59 34.75 33.95 33.28 32.82 32.55 32.42 32.32 32.11 31.70 31.09 30.36 29.58 28.82 28.02 27.14 26.11 24.96 23.73 22.53 21.47 20.65 20.15 20.02 20.21 20.68 21.34 22.15 23.12 24.29 25.64 27.07 28.47 29.73 30.82 31.78 32.66 33.53 34.41 35.31 36.19 37.01 37.71 38.29 38.75 39.11 39.37 39.54 39.62 39.60 39.52 39.37 39.15 38.90 38.63 38.35 38.03 37.64 37.18 36.70 36.24 35.83 35.46 35.13 34.83 34.58 34.38 34.21 34.06 33.92 33.79 33.67 33.52 33.35 33.12 32.83 32.47 32.02 31.49 30.89 30.24 29.57 28.94 28.41 28.03 27.76 27.53 27.30 27.02 26.65 26.15 25.49 24.73 23.94 23.22 22.65 22.26 22.04 21.90 21.75 21.51 21.18 20.81 20.49 20.31 20.35 20.65 21.24 22.05 23.00 23.98 24.93 25.82 26.70 27.57 28.47 29.37 30.23 31.02 31.70 32.25 32.69 33.05 33.40 33.80 34.29 34.87 35.44 35.84 35.90 35.47 34.51 33.11 31.45 29.70 28.03 26.52 25.22 24.13 23.25 22.50 21.81 21.10 20.36 19.66 19.11 18.75 18.59 18.53 18.45 18.25 17.83 17.18 16.33 15.40 14.55 13.96 13.70 13.69 13.76
22.53 22.82 23.37 24.11 24.96 25.83 26.68 27.45 28.10 28.61 28.99 29.26 29.48 29.71 29.98 30.30 30.68 31.12 31.60 32.10 32.61 33.10 33.58 34.07 34.53 34.91 35.15 35.25 35.24 35.24 35.36 35.70 36.25 36.93 37.58 38.04 38.21 38.06 37.62 36.95 36.11 35.21 34.33 33.59 33.05 32.72 32.56 32.45 32.26 31.87 31.27 30.52 29.71 28.90 28.08 27.18 26.14 24.96 23.73 22.55 21.54 20.77 20.30 20.14 20.27 20.64 21.20 21.92 22.83 23.94 25.22 26.57 27.88 29.06 30.11 31.05 31.95 32.86 33.80 34.76 35.70 36.58 37.34 38.00 38.55 39.02 39.39 39.66 39.79 39.79 39.68 39.45 39.11 38.68 38.20 37.71 37.20 36.69 36.19 35.74 35.37 35.07 34.83 34.61 34.42 34.23 34.06 33.89 33.71 33.51 33.28 33.03 32.75 32.44 32.10 31.73 31.34 30.92 30.48 29.99 29.46 28.93 28.47 28.18 28.05 28.04 28.05 27.98 27.78 27.41 26.84 26.08 25.19 24.28 23.48 22.86 22.46 22.22 22.04 21.81 21.47 21.04 20.59 20.23 20.03 20.08 20.43 21.07 21.95 22.95 23.97 24.96 25.89 26.80 27.72 28.68 29.65 30.59 31.46 32.21 32.83 33.33 33.74 34.13 34.57 35.12 35.78 36.45 36.97 37.13 36.80 35.94 34.63 33.03 31.31 29.60 28.03 26.65 25.49 24.55 23.77 23.06 22.32 21.55 20.78 20.12 19.65 19.38 19.26 19.17 19.00 18.67 18.12 17.34 16.43 15.52 14.80 14.37 14.22 14.20
23.22 23.46 23.92 24.55 25.29 26.08 26.84 27.55 28.16 28.66 29.06 29.37 29.65 29.94 30.27 30.61 30.95 31.29 31.64 32.03 32.45 32.91 33.38 33.85 34.26 34.57 34.72 34.73 34.68 34.66 34.81 35.19 35.81 36.58 37.33 37.92 38.23 38.23 37.92 37.34 36.55 35.66 34.76 34.00 33.42 33.05 32.81 32.61 32.32 31.84 31.17 30.34 29.48 28.63 27.81 26.92 25.90 24.76 23.59 22.48 21.56 20.87 20.45 20.28 20.35 20.63 21.09 21.72 22.55 23.56 24.73 25.95 27.13 28.21 29.20 30.12 31.04 31.99 32.99 34.02 35.02 35.95 36.80 37.55 38.22 38.83 39.34 39.72 39.93 39.96 39.81 39.50 39.02 38.41 37.73 37.06 36.44 35.90 35.43 35.07 34.81 34.64 34.53 34.43 34.34 34.22 34.06 33.85 33.59 33.26 32.88 32.46 32.01 31.54 31.09 30.65 30.25 29.89 29.54 29.18 28.80 28.44 28.18 28.10 28.21 28.42 28.60 28.66 28.54 28.19 27.62 26.84 25.92 24.97 24.13 23.50 23.08 22.79 22.53 22.19 21.73 21.20 20.69 20.29 20.10 20.19 20.58 21.27 22.18 23.20 24.25 25.24 26.19 27.12 28.05 29.02 30.00 30.97 31.86 32.66 33.34 33.91 34.39 34.83 35.31 35.90 36.61 37.35 37.95 38.21 38.00 37.28 36.12 34.67 33.05 31.41 29.84 28.43 27.21 26.18 25.33 24.57 23.83 23.05 22.27 21.56 21.00 20.64 20.44 20.32 20.17 19.89 19.40 18.68 17.76 16.79 15.94 15.35 15.04 14.93
23.80 23.99 24.35 24.86 25.46 26.12 26.78 27.40 27.95 28.42 28.82 29.18 29.54 29.94 30.37 30.77 31.11 31.39 31.64 31.91 32.22 32.59 32.98 33.37 33.68 33.86 33.90 33.83 33.74 33.74 33.94 34.39 35.08 35.91 36.75 37.46 37.91 38.08 37.94 37.52 36.86 36.05 35.22 34.49 33.92 33.50 33.15 32.78 32.29 31.63 30.80 29.87 28.93 28.06 27.23 26.37 25.42 24.36 23.29 22.31 21.51 20.94 20.58 20.42 20.44 20.63 20.97 21.50 22.20 23.08 24.10 25.17 26.22 27.21 28.14 29.07 30.02 31.03 32.10 33.20 34.27 35.29 36.23 37.10 37.92 38.66 39.31 39.81 40.09 40.13 39.95 39.53 38.92 38.15 37.32 36.55 35.91 35.40 35.02 34.76 34.60 34.52 34.49 34.48 34.46 34.38 34.22 33.96 33.59 33.13 32.57 31.97 31.34 30.73 30.17 29.68 29.28 28.97 28.72 28.50 28.28 28.09 28.03 28.14 28.42 28.77 29.07 29.21 29.14 28.86 28.37 27.67 26.82 25.93 25.13 24.52 24.09 23.75 23.39 22.91 22.32 21.70 21.14 20.73 20.57 20.70 21.15 21.88 22.81 23.84 24.87 25.87 26.80 27.71 28.61 29.54 30.48 31.39 32.26 33.05 33.77 34.40 34.95 35.46 35.99 36.63 37.37 38.14 38.77 39.09 38.98 38.41 37.45 36.20 34.77 33.26 31.77 30.36 29.08 27.97 27.04 26.24 25.51 24.79 24.06 23.36 22.77 22.36 22.10 21.95 21.79 21.52 21.04 20.32 19.37 18.34 17.38 16.65 16.19 15.98
24.16 24.30 24.58 24.96 25.44 25.96 26.49 27.00 27.47 27.89 28.29 28.70 29.17 29.70 30.25 30.76 31.14 31.40 31.58 31.75 31.95 32.20 32.46 32.71 32.88 32.94 32.89 32.77 32.69 32.73 32.97 33.47 34.19 35.06 35.96 36.75 37.33 37.66 37.72 37.50 37.03 36.38 35.68 35.03 34.49 34.02 33.54 32.95 32.20 31.29 30.26 29.20 28.21 27.32 26.50 25.67 24.77 23.81 22.87 22.03 21.38 20.93 20.65 20.51 20.50 20.60 20.83 21.22 21.76 22.47 23.32 24.24 25.18 26.11 27.04 28.00 29.02 30.12 31.27 32.44 33.59 34.69 35.74 36.74 37.70 38.60 39.38 39.97 40.31 40.36 40.11 39.60 38.87 37.99 37.10 36.32 35.72 35.29 34.99 34.79 34.67 34.62 34.62 34.63 34.63 34.56 34.38 34.07 33.61 33.02 32.32 31.56 30.79 30.07 29.44 28.92 28.52 28.25 28.08 27.96 27.88 27.86 27.96 28.21 28.60 29.02 29.36 29.54 29.53 29.34 28.98 28.44 27.76 27.02 26.34 25.81 25.39 25.01 24.55 23.95 23.24 22.54 21.94 21.54 21.42 21.61 22.12 22.88 23.82 24.84 25.85 26.81 27.71 28.56 29.39 30.23 31.07 31.89 32.68 33.42 34.12 34.79 35.42 36.01 36.63 37.33 38.10 38.87 39.49 39.82 39.77 39.34 38.57 37.54 36.33 35.01 33.64 32.27 30.97 29.80 28.81 28.01 27.32 26.69 26.04 25.40 24.85 24.42 24.15 23.98 23.80 23.51 23.01 22.25 21.26 20.16 19.11 18.24 17.65 17.36
24.23 24.34 24.54 24.84 25.20 25.60 26.02 26.43 26.82 27.20 27.59 28.06 28.62 29.28 29.97 30.57 31.03 31.31 31.47 31.57 31.65 31.76 31.87 31.96 32.00 31.96 31.86 31.75 31.71 31.81 32.10 32.62 33.33 34.19 35.10 35.94 36.64 37.12 37.37 37.37 37.12 36.69 36.15 35.60 35.07 34.54 33.91 33.10 32.09 30.92 29.70 28.52 27.47 26.57 25.76 24.95 24.11 23.24 22.42 21.73 21.21 20.86 20.65 20.54 20.51 20.55 20.67 20.91 21.29 21.81 22.48 23.25 24.11 25.03 26.01 27.06 28.17 29.35 30.58 31.80 33.00 34.17 35.32 36.47 37.58 38.63 39.54 40.23 40.62 40.66 40.35 39.75 38.93 38.02 37.13 36.40 35.87 35.51 35.26 35.07 34.94 34.86 34.82 34.80 34.76 34.66 34.45 34.09 33.56 32.88 32.08 31.23 30.38 29.61 28.94 28.40 28.02 27.77 27.64 27.59 27.61 27.71 27.91 28.24 28.67 29.09 29.43 29.62 29.67 29.58 29.38 29.05 28.58 28.06 27.56 27.15 26.79 26.39 25.87 25.19 24.42 23.67 23.06 22.69 22.62 22.87 23.42 24.21 25.14 26.12 27.10 28.01 28.84 29.59 30.30 31.00 31.71 32.40 33.08 33.73 34.40 35.08 35.77 36.47 37.21 38.01 38.83 39.60 40.18 40.48 40.46 40.13 39.52 38.69 37.69 36.55 35.32 34.05 32.79 31.63 30.66 29.88 29.25 28.70 28.14 27.59 27.09 26.71 26.46 26.29 26.10 25.79 25.24 24.42 23.37 22.20 21.07 20.09 19.37 18.99
24.02 24.10 24.26 24.49 24.79 25.12 25.47 25.82 26.16 26.51 26.92 27.42 28.06 28.81 29.58 30.27 30.78 31.10 31.25 31.29 31.29 31.27 31.24 31.20 31.13 31.03 30.93 30.87 30.91 31.09 31.43 31.94 32.62 33.44 34.34 35.22 36.00 36.62 37.04 37.24 37.21 36.96 36.57 36.10 35.57 34.96 34.20 33.22 32.02 30.65 29.26 27.98 26.88 25.97 25.15 24.37 23.58 22.80 22.09 21.51 21.09 20.81 20.63 20.53 20.48 20.48 20.53 20.66 20.89 21.24 21.73 22.38 23.18 24.12 25.18 26.32 27.53 28.78 30.03 31.26 32.48 33.69 34.93 36.20 37.47 38.68 39.73 40.54 40.99 41.03 40.68 40.03 39.17 38.26 37.42 36.77 36.30 35.99 35.74 35.52 35.34 35.20 35.09 34.99 34.87 34.69 34.42 34.00 33.42 32.69 31.85 30.96 30.10 29.31 28.65 28.12 27.75 27.51 27.40 27.38 27.44 27.58 27.83 28.18 28.59 28.98 29.29 29.49 29.58 29.60 29.54 29.40 29.16 28.87 28.58 28.31 28.05 27.69 27.17 26.50 25.73 25.00 24.43 24.10 24.07 24.36 24.94 25.74 26.64 27.58 28.48 29.29 30.00 30.60 31.15 31.70 32.26 32.83 33.39 33.97 34.59 35.28 36.03 36.85 37.74 38.66 39.56 40.33 40.88 41.14 41.13 40.85 40.35 39.66 38.81 37.84 36.78 35.65 34.53 33.49 32.60 31.89 31.32 30.81 30.32 29.84 29.41 29.08 28.87 28.72 28.52 28.17 27.57 26.68 25.57 24.35 23.13 22.05 21.22 20.76
23.64 23.69 23.81 24.01 24.28 24.59 24.93 25.26 25.60 25.97 26.40 26.94 27.61 28.38 29.18 29.89 30.43 30.76 30.89 30.89 30.81 30.70 30.58 30.45 30.33 30.21 30.15 30.16 30.29 30.55 30.93 31.45 32.10 32.89 33.78 34.69 35.53 36.25 36.81 37.15 37.28 37.17 36.87 36.42 35.86 35.19 34.35 33.29 32.00 30.53 29.04 27.68 26.53 25.58 24.75 23.98 23.25 22.56 21.97 21.49 21.12 20.87 20.69 20.57 20.50 20.46 20.46 20.52 20.65 20.88 21.24 21.79 22.54 23.50 24.62 25.85 27.11 28.37 29.60 30.79 31.98 33.20 34.49 35.87 37.29 38.67 39.89 40.82 41.36 41.44 41.11 40.45 39.61 38.73 37.94 37.33 36.89 36.58 36.31 36.06 35.83 35.62 35.43 35.24 35.01 34.72 34.35 33.85 33.23 32.48 31.63 30.76 29.91 29.15 28.51 28.01 27.65 27.43 27.31 27.29 27.34 27.48 27.72 28.03 28.38 28.73 29.01 29.21 29.35 29.44 29.50 29.49 29.43 29.34 29.24 29.13 28.99 28.74 28.32 27.74 27.07 26.42 25.91 25.64 25.66 25.97 26.56 27.33 28.18 29.03 29.81 30.47 30.99 31.40 31.76 32.15 32.59 33.07 33.58 34.12 34.72 35.42 36.23 37.17 38.20 39.26 40.24 41.03 41.55 41.78 41.75 41.49 41.04 40.44 39.70 38.88 37.99 37.07 36.17 35.33 34.61 34.01 33.50 33.03 32.56 32.11 31.73 31.45 31.26 31.10 30.87 30.46 29.79 28.84 27.67 26.39 25.10 23.92 22.99 22.47
23.21 23.23 23.30 23.46 23.72 24.05 24.42 24.79 25.19 25.61 26.09 26.65 27.30 28.04 28.79 29.47 29.98 30.29 30.41 30.36 30.23 30.06 29.90 29.75 29.63 29.55 29.54 29.63 29.83 30.14 30.56 31.07 31.72 32.50 33.39 34.33 35.23 36.01 36.64 37.07 37.27 37.21 36.93 36.46 35.86 35.16 34.31 33.27 31.99 30.53 29.02 27.62 26.41 25.40 24.53 23.76 23.10 22.53 22.06 21.67 21.36 21.10 20.90 20.74 20.63 20.56 20.53 20.56 20.65 20.80 21.09 21.57 22.29 23.25 24.40 25.65 26.90 28.12 29.28 30.39 31.51 32.71 34.03 35.48 37.03 38.56 39.94 41.01 41.66 41.84 41.57 40.97 40.19 39.35 38.59 37.98 37.54 37.19 36.90 36.61 36.34 36.08 35.82 35.53 35.18 34.77 34.28 33.70 33.02 32.26 31.44 30.60 29.80 29.08 28.48 28.02 27.70 27.49 27.38 27.34 27.37 27.46 27.63 27.87 28.16 28.46 28.73 28.95 29.13 29.27 29.37 29.43 29.46 29.48 29.52 29.56 29.56 29.45 29.20 28.79 28.27 27.76 27.35 27.15 27.20 27.52 28.08 28.80 29.56 30.28 30.88 31.33 31.62 31.80 31.99 32.25 32.64 33.12 33.64 34.20 34.81 35.54 36.42 37.46 38.60 39.75 40.78 41.58 42.08 42.28 42.24 41.99 41.56 40.99 40.34 39.65 38.96 38.28 37.65 37.08 36.58 36.13 35.69 35.24 34.78 34.35 33.99 33.72 33.51 33.30 32.98 32.47 31.69 30.66 29.43 28.10 26.76 25.52 24.53 23.96
22.79 22.76 22.76 22.87 23.10 23.45 23.87 24.33 24.83 25.35 25.91 26.50 27.13 27.80 28.47 29.07 29.53 29.80 29.87 29.79 29.63 29.45 29.30 29.18 29.12 29.11 29.17 29.32 29.55 29.86 30.26 30.77 31.40 32.18 33.08 34.04 34.97 35.79 36.45 36.91 37.11 37.04 36.73 36.22 35.59 34.87 34.06 33.07 31.88 30.51 29.07 27.69 26.44 25.36 24.44 23.66 23.06 22.61 22.27 21.99 21.73 21.49 21.27 21.08 20.94 20.84 20.80 20.82 20.89 21.03 21.29 21.74 22.44 23.39 24.52 25.72 26.91 28.04 29.09 30.10 31.15 32.30 33.62 35.11 36.73 38.37 39.87 41.07 41.84 42.12 41.97 41.48 40.78 40.01 39.28 38.65 38.16 37.77 37.43 37.11 36.79 36.47 36.14 35.77 35.32 34.79 34.19 33.52 32.79 32.02 31.23 30.46 29.72 29.07 28.54 28.15 27.89 27.74 27.67 27.63 27.61 27.63 27.72 27.87 28.10 28.37 28.64 28.90 29.10 29.24 29.32 29.36 29.39 29.44 29.54 29.67 29.80 29.86 29.78 29.56 29.22 28.86 28.56 28.42 28.49 28.80 29.31 29.93 30.55 31.10 31.48 31.69 31.75 31.75 31.81 32.04 32.45 33.00 33.60 34.23 34.90 35.68 36.62 37.73 38.94 40.12 41.15 41.91 42.37 42.56 42.51 42.27 41.86 41.33 40.76 40.19 39.69 39.26 38.91 38.62 38.34 38.04 37.68 37.26 36.82 36.39 36.03 35.74 35.47 35.16 34.71 34.05 33.14 32.01 30.71 29.35 27.98 26.72 25.71 25.13
22.35 22.26 22.16 22.17 22.36 22.72 23.20 23.78 24.41 25.08 25.74 26.39 27.03 27.66 28.26 28.79 29.18 29.39 29.43 29.33 29.16 29.01 28.91 28.88 28.91 28.99 29.12 29.28 29.49 29.75 30.09 30.53 31.12 31.87 32.76 33.72 34.65 35.48 36.15 36.60 36.79 36.69 36.33 35.78 35.13 34.41 33.62 32.70 31.61 30.36 29.03 27.73 26.50 25.38 24.41 23.61 23.04 22.69 22.48 22.32 22.16 21.97 21.78 21.60 21.45 21.34 21.29 21.31 21.38 21.53 21.80 22.27 22.97 23.90 24.97 26.08 27.17 28.17 29.10 30.01 30.98 32.09 33.39 34.88 36.50 38.16 39.71 40.98 41.84 42.24 42.20 41.84 41.26 40.58 39.89 39.27 38.74 38.29 37.88 37.48 37.08 36.68 36.27 35.82 35.30 34.69 34.00 33.27 32.50 31.73 30.98 30.27 29.62 29.08 28.66 28.39 28.26 28.21 28.21 28.21 28.18 28.14 28.13 28.20 28.37 28.62 28.91 29.18 29.38 29.49 29.49 29.44 29.39 29.40 29.50 29.67 29.87 30.04 30.11 30.03 29.84 29.60 29.40 29.30 29.37 29.63 30.05 30.53 30.99 31.33 31.50 31.51 31.40 31.30 31.34 31.61 32.11 32.76 33.48 34.21 34.96 35.80 36.79 37.94 39.17 40.34 41.31 42.01 42.42 42.59 42.56 42.36 41.99 41.51 41.01 40.57 40.24 40.04 39.92 39.85 39.75 39.57 39.27 38.88 38.45 38.03 37.66 37.33 36.99 36.57 35.97 35.15 34.10 32.86 31.50 30.11 28.75 27.51 26.53 25.97
21.83 21.66 21.44 21.34 21.45 21.79 22.34 23.04 23.84 24.68 25.50 26.26 26.96 27.61 28.19 28.68 29.03 29.21 29.23 29.12 28.98 28.87 28.84 28.92 29.06 29.22 29.38 29.53 29.68 29.85 30.09 30.44 30.95 31.63 32.46 33.37 34.27 35.09 35.76 36.20 36.38 36.28 35.91 35.34 34.66 33.91 33.11 32.21 31.17 30.03 28.83 27.63 26.47 25.37 24.38 23.57 23.01 22.71 22.60 22.57 22.53 22.46 22.36 22.25 22.13 22.02 21.97 21.98 22.07 22.26 22.58 23.10 23.83 24.74 25.74 26.75 27.69 28.56 29.38 30.21 31.13 32.20 33.45 34.88 36.42 38.00 39.50 40.78 41.69 42.17 42.24 42.00 41.56 40.99 40.38 39.79 39.23 38.71 38.20 37.67 37.15 36.64 36.14 35.62 35.05 34.39 33.66 32.88 32.09 31.33 30.62 29.98 29.45 29.04 28.79 28.70 28.74 28.86 29.00 29.08 29.08 29.02 28.94 28.93 29.03 29.26 29.55 29.82 29.99 30.01 29.91 29.74 29.60 29.53 29.58 29.73 29.94 30.14 30.26 30.26 30.15 29.98 29.83 29.74 29.78 29.96 30.24 30.56 30.83 30.98 30.98 30.86 30.69 30.60 30.71 31.08 31.69 32.46 33.28 34.10 34.94 35.84 36.87 38.03 39.23 40.35 41.24 41.87 42.25 42.43 42.45 42.31 42.01 41.61 41.21 40.89 40.71 40.66 40.70 40.76 40.74 40.60 40.31 39.93 39.50 39.09 38.72 38.37 37.99 37.48 36.77 35.82 34.64 33.30 31.88 30.47 29.14 27.95 27.03 26.52
21.19 20.94 20.60 20.36 20.38 20.71 21.31 22.13 23.10 24.13 25.13 26.06 26.89 27.63 28.26 28.75 29.09 29.27 29.30 29.22 29.11 29.06 29.12 29.29 29.51 29.72 29.88 29.99 30.06 30.14 30.28 30.53 30.93 31.51 32.24 33.07 33.92 34.71 35.37 35.83 36.04 35.96 35.61 35.04 34.33 33.53 32.66 31.70 30.66 29.56 28.45 27.35 26.29 25.26 24.30 23.50 22.95 22.68 22.63 22.71 22.82 22.90 22.95 22.95 22.89 22.81 22.77 22.79 22.91 23.16 23.58 24.18 24.96 25.86 26.78 27.68 28.50 29.25 29.98 30.76 31.65 32.68 33.85 35.13 36.50 37.91 39.29 40.51 41.43 41.97 42.13 41.99 41.66 41.21 40.70 40.15 39.57 38.97 38.32 37.64 36.97 36.33 35.75 35.19 34.59 33.92 33.17 32.36 31.56 30.81 30.14 29.57 29.15 28.91 28.85 28.98 29.24 29.57 29.88 30.10 30.18 30.13 30.01 29.94 29.98 30.16 30.42 30.66 30.78 30.72 30.51 30.25 30.03 29.90 29.89 29.98 30.12 30.27 30.35 30.33 30.24 30.09 29.95 29.84 29.81 29.86 29.98 30.12 30.21 30.21 30.11 29.96 29.83 29.84 30.08 30.56 31.26 32.09 32.98 33.88 34.78 35.74 36.80 37.94 39.08 40.12 40.94 41.53 41.91 42.15 42.25 42.21 42.03 41.75 41.46 41.25 41.17 41.21 41.30 41.36 41.31 41.11 40.77 40.35 39.92 39.53 39.19 38.86 38.46 37.92 37.16 36.13 34.86 33.44 31.97 30.55 29.25 28.14 27.31 26.85
20.46 20.14 19.69 19.34 19.28 19.58 20.21 21.13 22.24 23.43 24.63 25.75 26.76 27.63 28.34 28.88 29.25 29.46 29.54 29.54 29.51 29.53 29.65 29.88 30.13 30.34 30.46 30.50 30.50 30.51 30.59 30.76 31.08 31.56 32.19 32.92 33.70 34.46 35.12 35.61 35.86 35.84 35.53 34.97 34.21 33.31 32.33 31.27 30.16 29.04 27.95 26.93 25.96 25.04 24.17 23.42 22.89 22.64 22.63 22.80 23.03 23.27 23.47 23.59 23.63 23.60 23.58 23.64 23.83 24.17 24.70 25.41 26.24 27.13 28.00 28.80 29.53 30.22 30.91 31.67 32.53 33.48 34.51 35.57 36.69 37.86 39.06 40.19 41.09 41.66 41.88 41.82 41.57 41.22 40.77 40.25 39.65 38.95 38.17 37.34 36.53 35.80 35.17 34.60 34.00 33.34 32.58 31.77 30.96 30.22 29.58 29.09 28.78 28.69 28.84 29.20 29.69 30.23 30.72 31.07 31.23 31.21 31.09 30.96 30.94 31.06 31.29 31.49 31.55 31.43 31.17 30.87 30.62 30.48 30.42 30.43 30.46 30.48 30.46 30.37 30.23 30.07 29.89 29.73 29.59 29.50 29.44 29.40 29.34 29.24 29.11 29.00 28.97 29.12 29.48 30.05 30.79 31.65 32.56 33.50 34.46 35.47 36.53 37.62 38.69 39.64 40.41 41.00 41.44 41.78 42.02 42.14 42.12 42.00 41.85 41.74 41.71 41.74 41.76 41.71 41.51 41.16 40.71 40.23 39.79 39.44 39.15 38.87 38.52 38.00 37.22 36.16 34.84 33.36 31.85 30.43 29.19 28.18 27.45 27.06
19.74 19.38 18.85 18.43 18.30 18.56 19.19 20.13 21.31 22.62 23.97 25.27 26.45 27.46 28.27 28.89 29.32 29.61 29.80 29.91 30.00 30.11 30.28 30.52 30.76 30.92 30.97 30.94 30.88 30.84 30.89 31.05 31.34 31.77 32.32 32.97 33.69 34.41 35.07 35.59 35.90 35.93 35.67 35.10 34.27 33.25 32.12 30.93 29.71 28.52 27.42 26.44 25.57 24.76 24.01 23.35 22.87 22.63 22.66 22.88 23.20 23.55 23.86 24.09 24.21 24.26 24.31 24.44 24.72 25.18 25.83 26.63 27.52 28.41 29.24 30.00 30.70 31.38 32.07 32.82 33.62 34.45 35.27 36.07 36.89 37.79 38.79 39.80 40.65 41.23 41.48 41.46 41.25 40.92 40.49 39.96 39.30 38.53 37.65 36.74 35.87 35.12 34.49 33.94 33.37 32.72 31.98 31.17 30.37 29.64 29.05 28.63 28.43 28.50 28.83 29.39 30.08 30.79 31.40 31.82 32.03 32.03 31.88 31.71 31.63 31.70 31.87 32.04 32.09 31.97 31.73 31.46 31.25 31.13 31.06 31.00 30.91 30.79 30.62 30.43 30.22 29.99 29.76 29.51 29.24 28.99 28.77 28.58 28.41 28.26 28.14 28.08 28.16 28.41 28.85 29.47 30.21 31.05 31.97 32.94 33.94 34.97 36.02 37.06 38.04 38.91 39.66 40.30 40.86 41.35 41.78 42.10 42.30 42.39 42.40 42.38 42.34 42.27 42.12 41.85 41.43 40.89 40.30 39.73 39.28 38.97 38.76 38.57 38.28 37.80 37.04 35.96 34.60 33.07 31.55 30.16 29.01 28.13 27.54 27.23
19.16 18.79 18.24 17.78 17.61 17.81 18.37 19.25 20.39 21.73 23.15 24.57 25.89 27.02 27.94 28.63 29.14 29.56 29.90 30.18 30.42 30.62 30.84 31.06 31.25 31.35 31.33 31.23 31.12 31.06 31.11 31.31 31.63 32.07 32.59 33.19 33.86 34.54 35.20 35.74 36.09 36.17 35.92 35.32 34.41 33.26 31.98 30.64 29.31 28.06 26.95 26.00 25.21 24.52 23.88 23.31 22.89 22.69 22.73 22.96 23.32 23.70 24.07 24.35 24.55 24.69 24.84 25.08 25.48 26.07 26.84 27.73 28.65 29.55 30.37 31.13 31.85 32.57 33.29 34.00 34.70 35.36 35.93 36.45 36.98 37.62 38.41 39.27 40.05 40.59 40.84 40.82 40.59 40.23 39.76 39.17 38.46 37.64 36.75 35.85 35.03 34.34 33.78 33.29 32.77 32.15 31.44 30.65 29.87 29.19 28.65 28.33 28.26 28.46 28.94 29.64 30.46 31.25 31.89 32.31 32.48 32.44 32.25 32.03 31.89 31.90 32.02 32.18 32.25 32.20 32.06 31.90 31.79 31.73 31.68 31.57 31.37 31.10 30.78 30.46 30.16 29.85 29.53 29.16 28.77 28.36 28.00 27.70 27.47 27.30 27.19 27.18 27.31 27.61 28.08 28.69 29.40 30.22 31.12 32.10 33.14 34.19 35.22 36.22 37.13 37.97 38.73 39.45 40.16 40.84 41.48 42.05 42.50 42.82 43.00 43.06 42.99 42.78 42.41 41.88 41.21 40.46 39.71 39.06 38.57 38.29 38.16 38.07 37.85 37.40 36.63 35.51 34.12 32.59 31.09 29.79 28.78 28.06 27.61 27.39
18.88 18.52 17.99 17.54 17.33 17.44 17.87 18.60 19.60 20.85 22.26 23.73 25.12 26.34 27.32 28.07 28.69 29.23 29.75 30.22 30.60 30.91 31.15 31.36 31.52 31.58 31.53 31.40 31.27 31.22 31.31 31.56 31.95 32.43 32.96 33.54 34.17 34.83 35.47 36.01 36.36 36.44 36.17 35.52 34.52 33.25 31.84 30.39 28.99 27.71 26.61 25.72 25.00 24.39 23.83 23.34 22.96 22.79 22.83 23.04 23.36 23.71 24.04 24.33 24.58 24.81 25.09 25.48 26.05 26.78 27.65 28.60 29.55 30.44 31.27 32.06 32.85 33.62 34.35 35.01 35.56 36.00 36.32 36.57 36.85 37.26 37.85 38.55 39.22 39.71 39.92 39.85 39.56 39.11 38.55 37.90 37.16 36.35 35.52 34.74 34.07 33.54 33.10 32.71 32.26 31.70 31.02 30.27 29.55 28.93 28.50 28.30 28.36 28.68 29.25 30.01 30.85 31.62 32.19 32.52 32.59 32.46 32.21 31.93 31.73 31.66 31.73 31.87 31.99 32.05 32.07 32.08 32.11 32.15 32.13 31.98 31.68 31.27 30.81 30.37 29.95 29.56 29.14 28.66 28.14 27.61 27.14 26.77 26.49 26.30 26.19 26.17 26.29 26.57 27.00 27.57 28.26 29.04 29.93 30.91 31.95 33.01 34.05 35.03 35.95 36.80 37.63 38.46 39.31 40.18 41.05 41.85 42.56 43.10 43.46 43.60 43.53 43.22 42.67 41.92 41.02 40.07 39.16 38.40 37.86 37.58 37.50 37.46 37.29 36.83 36.02 34.87 33.46 31.96 30.56 29.40 28.56 28.01 27.69 27.55
18.96 18.64 18.16 17.73 17.49 17.49 17.75 18.26 19.05 20.13 21.44 22.88 24.28 25.52 26.52 27.32 28.00 28.66 29.33 29.96 30.48 30.87 31.16 31.40 31.57 31.65 31.62 31.53 31.43 31.43 31.58 31.90 32.35 32.87 33.42 33.99 34.60 35.23 35.84 36.34 36.64 36.67 36.34 35.62 34.53 33.18 31.70 30.19 28.78 27.53 26.47 25.63 24.96 24.39 23.88 23.43 23.09 22.92 22.93 23.07 23.29 23.52 23.76 24.00 24.26 24.58 25.00 25.59 26.33 27.22 28.20 29.19 30.14 31.02 31.86 32.69 33.54 34.36 35.08 35.64 36.02 36.23 36.32 36.36 36.44 36.67 37.09 37.65 38.21 38.62 38.77 38.63 38.25 37.69 37.03 36.31 35.57 34.83 34.14 33.56 33.11 32.78 32.52 32.26 31.90 31.41 30.79 30.10 29.45 28.94 28.64 28.58 28.76 29.15 29.74 30.46 31.20 31.84 32.27 32.44 32.39 32.16 31.84 31.51 31.25 31.11 31.11 31.21 31.37 31.55 31.75 31.95 32.15 32.29 32.30 32.11 31.72 31.18 30.59 30.03 29.52 29.05 28.55 27.99 27.38 26.76 26.21 25.77 25.44 25.20 25.03 24.95 24.99 25.18 25.54 26.05 26.69 27.46 28.33 29.31 30.35 31.41 32.47 33.49 34.48 35.42 36.35 37.30 38.29 39.31 40.35 41.36 42.27 43.03 43.56 43.83 43.82 43.50 42.88 42.00 40.95 39.84 38.79 37.90 37.28 36.97 36.88 36.84 36.65 36.15 35.30 34.12 32.75 31.34 30.08 29.09 28.42 28.02 27.81 27.73
19.40 19.12 18.70 18.29 18.02 17.92 18.00 18.29 18.84 19.70 20.85 22.18 23.53 24.74 25.71 26.49 27.19 27.91 28.68 29.42 30.05 30.53 30.91 31.21 31.46 31.63 31.70 31.70 31.70 31.80 32.04 32.42 32.91 33.44 33.99 34.55 35.13 35.72 36.26 36.69 36.90 36.81 36.38 35.57 34.43 33.05 31.56 30.08 28.72 27.52 26.52 25.72 25.06 24.50 24.01 23.58 23.26 23.08 23.03 23.06 23.11 23.16 23.24 23.38 23.62 24.00 24.58 25.35 26.29 27.33 28.40 29.43 30.38 31.26 32.10 32.97 33.85 34.68 35.34 35.79 36.00 36.02 35.92 35.79 35.75 35.86 36.18 36.63 37.11 37.45 37.55 37.34 36.87 36.21 35.46 34.71 33.99 33.36 32.85 32.49 32.28 32.18 32.11 31.99 31.74 31.34 30.79 30.18 29.64 29.26 29.09 29.14 29.38 29.78 30.30 30.87 31.42 31.84 32.07 32.07 31.89 31.58 31.22 30.86 30.57 30.37 30.30 30.36 30.53 30.79 31.13 31.51 31.86 32.09 32.11 31.88 31.40 30.75 30.05 29.40 28.83 28.32 27.79 27.20 26.54 25.87 25.24 24.71 24.28 23.95 23.68 23.49 23.41 23.47 23.72 24.16 24.75 25.50 26.37 27.34 28.39 29.47 30.57 31.66 32.75 33.81 34.87 35.93 37.01 38.14 39.29 40.44 41.52 42.45 43.16 43.60 43.74 43.54 42.99 42.11 41.00 39.79 38.62 37.62 36.91 36.52 36.37 36.28 36.03 35.48 34.61 33.46 32.17 30.89 29.79 28.98 28.45 28.15 28.01 27.96
20.09 19.86 19.49 19.13 18.83 18.64 18.57 18.65 18.96 19.59 20.54 21.72 22.96 24.07 24.96 25.68 26.35 27.08 27.89 28.71 29.44 30.03 30.52 30.94 31.31 31.61 31.81 31.96 32.12 32.36 32.73 33.18 33.69 34.21 34.72 35.23 35.75 36.27 36.72 37.02 37.08 36.85 36.28 35.38 34.22 32.87 31.45 30.06 28.77 27.65 26.68 25.88 25.21 24.65 24.16 23.75 23.44 23.24 23.12 23.01 22.87 22.70 22.58 22.57 22.74 23.17 23.85 24.78 25.88 27.06 28.23 29.32 30.29 31.18 32.03 32.91 33.78 34.56 35.14 35.46 35.52 35.39 35.16 34.94 34.82 34.90 35.18 35.60 36.05 36.37 36.44 36.21 35.69 34.97 34.17 33.40 32.74 32.22 31.89 31.74 31.74 31.83 31.92 31.93 31.79 31.47 31.03 30.53 30.11 29.85 29.77 29.86 30.08 30.39 30.74 31.10 31.38 31.54 31.54 31.38 31.10 30.75 30.39 30.05 29.75 29.54 29.41 29.42 29.56 29.86 30.29 30.79 31.24 31.54 31.57 31.28 30.71 29.97 29.19 28.48 27.89 27.38 26.87 26.31 25.66 24.94 24.24 23.59 23.05 22.59 22.21 21.90 21.69 21.62 21.74 22.08 22.62 23.34 24.21 25.19 26.25 27.35 28.49 29.65 30.82 31.99 33.14 34.29 35.45 36.63 37.86 39.09 40.29 41.37 42.27 42.92 43.28 43.28 42.89 42.11 41.03 39.79 38.56 37.49 36.70 36.24 36.01 35.85 35.54 34.98 34.13 33.06 31.88 30.75 29.81 29.13 28.70 28.46 28.35 28.31
20.99 20.78 20.46 20.12 19.81 19.55 19.36 19.27 19.37 19.78 20.51 21.50 22.57 23.55 24.33 24.95 25.54 26.24 27.07 27.95 28.80 29.53 30.15 30.70 31.19 31.61 31.97 32.29 32.64 33.07 33.58 34.13 34.66 35.15 35.59 36.03 36.45 36.84 37.15 37.28 37.17 36.76 36.05 35.10 33.95 32.68 31.36 30.07 28.87 27.78 26.82 26.00 25.32 24.74 24.27 23.89 23.60 23.38 23.19 22.93 22.60 22.22 21.88 21.70 21.78 22.19 22.93 23.96 25.17 26.46 27.73 28.88 29.91 30.83 31.71 32.57 33.39 34.07 34.53 34.73 34.68 34.45 34.14 33.88 33.77 33.87 34.18 34.65 35.14 35.50 35.61 35.40 34.89 34.17 33.37 32.62 32.02 31.62 31.43 31.43 31.59 31.80 31.98 32.08 32.02 31.82 31.49 31.14 30.83 30.64 30.57 30.59 30.68 30.80 30.93 31.01 31.02 30.91 30.69 30.38 30.03 29.68 29.36 29.07 28.81 28.61 28.47 28.42 28.53 28.83 29.29 29.84 30.35 30.66 30.67 30.32 29.68 28.87 28.03 27.30 26.71 26.23 25.79 25.30 24.70 23.98 23.21 22.47 21.80 21.24 20.77 20.37 20.06 19.87 19.87 20.09 20.55 21.23 22.09 23.07 24.14 25.27 26.42 27.60 28.80 30.00 31.21 32.41 33.61 34.85 36.12 37.41 38.70 39.91 40.99 41.86 42.45 42.68 42.49 41.87 40.89 39.70 38.47 37.38 36.57 36.08 35.80 35.60 35.28 34.74 33.97 33.01 31.96 30.97 30.16 29.58 29.21 29.00 28.90 28.85
22.04 21.86 21.56 21.22 20.89 20.57 20.27 20.05 19.98 20.18 20.70 21.47 22.34 23.14 23.78 24.29 24.80 25.46 26.29 27.25 28.22 29.10 29.86 30.52 31.10 31.62 32.09 32.58 33.13 33.76 34.44 35.09 35.67 36.15 36.54 36.87 37.16 37.40 37.51 37.45 37.14 36.56 35.74 34.75 33.64 32.45 31.24 30.03 28.87 27.79 26.81 25.96 25.26 24.71 24.27 23.92 23.65 23.42 23.16 22.80 22.31 21.76 21.24 20.89 20.85 21.20 21.93 22.99 24.27 25.63 26.97 28.21 29.31 30.30 31.19 32.02 32.74 33.30 33.63 33.71 33.58 33.31 32.99 32.74 32.67 32.84 33.25 33.82 34.40 34.86 35.08 34.97 34.55 33.90 33.15 32.45 31.91 31.59 31.50 31.59 31.80 32.04 32.25 32.38 32.40 32.32 32.14 31.92 31.71 31.53 31.37 31.22 31.07 30.93 30.78 30.59 30.33 29.99 29.58 29.16 28.77 28.44 28.16 27.93 27.74 27.57 27.44 27.38 27.46 27.72 28.17 28.72 29.21 29.50 29.47 29.06 28.36 27.50 26.65 25.92 25.35 24.93 24.57 24.18 23.66 22.99 22.20 21.40 20.65 20.02 19.50 19.06 18.70 18.43 18.32 18.44 18.80 19.42 20.23 21.20 22.25 23.36 24.48 25.61 26.77 27.95 29.15 30.38 31.63 32.90 34.22 35.58 36.95 38.28 39.50 40.54 41.32 41.75 41.74 41.29 40.45 39.37 38.23 37.21 36.44 35.96 35.70 35.50 35.21 34.76 34.10 33.28 32.39 31.53 30.83 30.32 30.00 29.81 29.71 29.66
23.26 23.08 22.77 22.40 22.03 21.65 21.27 20.93 20.73 20.77 21.08 21.62 22.25 22.84 23.31 23.71 24.15 24.77 25.61 26.63 27.72 28.74 29.62 30.35 30.98 31.54 32.10 32.72 33.45 34.26 35.11 35.89 36.54 37.05 37.41 37.67 37.83 37.90 37.82 37.55 37.05 36.32 35.41 34.39 33.30 32.17 31.02 29.84 28.68 27.56 26.54 25.68 24.99 24.46 24.07 23.76 23.51 23.26 22.96 22.53 21.96 21.29 20.64 20.17 20.02 20.28 20.97 22.02 23.30 24.68 26.07 27.37 28.55 29.59 30.50 31.27 31.88 32.30 32.51 32.51 32.35 32.08 31.80 31.60 31.60 31.86 32.38 33.06 33.78 34.39 34.77 34.84 34.57 34.05 33.41 32.79 32.32 32.06 32.00 32.10 32.28 32.48 32.65 32.78 32.87 32.91 32.88 32.79 32.63 32.40 32.09 31.71 31.28 30.84 30.39 29.93 29.43 28.90 28.36 27.87 27.45 27.13 26.89 26.70 26.55 26.42 26.32 26.28 26.36 26.60 27.01 27.51 27.94 28.15 28.05 27.59 26.85 25.99 25.15 24.46 23.96 23.61 23.34 23.05 22.62 22.01 21.25 20.43 19.65 19.00 18.49 18.08 17.71 17.41 17.22 17.23 17.49 18.01 18.75 19.66 20.66 21.69 22.73 23.77 24.84 25.96 27.15 28.38 29.66 30.97 32.34 33.75 35.20 36.62 37.94 39.09 39.98 40.53 40.66 40.36 39.70 38.78 37.79 36.90 36.23 35.83 35.62 35.47 35.27 34.92 34.41 33.75 33.02 32.31 31.72 31.30 31.03 30.86 30.77 30.72
24.61 24.41 24.06 23.65 23.21 22.77 22.32 21.91 21.61 21.50 21.63 21.93 22.32 22.69 22.99 23.28 23.66 24.24 25.07 26.13 27.29 28.40 29.35 30.12 30.75 31.33 31.93 32.64 33.50 34.45 35.43 36.34 37.09 37.66 38.05 38.29 38.38 38.33 38.09 37.65 36.98 36.12 35.12 34.04 32.94 31.81 30.64 29.44 28.23 27.05 25.99 25.12 24.46 23.99 23.64 23.36 23.12 22.86 22.55 22.11 21.50 20.78 20.06 19.51 19.27 19.47 20.10 21.10 22.35 23.72 25.10 26.42 27.64 28.72 29.61 30.32 30.82 31.12 31.23 31.19 31.04 30.82 30.61 30.49 30.57 30.91 31.51 32.31 33.17 33.96 34.54 34.82 34.78 34.45 33.96 33.46 33.06 32.84 32.78 32.83 32.93 33.03 33.12 33.23 33.38 33.52 33.62 33.62 33.48 33.17 32.70 32.09 31.40 30.67 29.95 29.23 28.53 27.85 27.21 26.67 26.24 25.92 25.67 25.48 25.34 25.24 25.19 25.18 25.28 25.51 25.87 26.29 26.61 26.73 26.54 26.04 25.30 24.48 23.72 23.11 22.70 22.44 22.26 22.03 21.66 21.10 20.37 19.55 18.79 18.17 17.72 17.38 17.07 16.77 16.53 16.44 16.59 16.99 17.64 18.45 19.35 20.28 21.20 22.14 23.12 24.19 25.35 26.58 27.86 29.19 30.58 32.03 33.52 35.00 36.38 37.57 38.50 39.10 39.33 39.18 38.70 37.99 37.19 36.47 35.94 35.64 35.50 35.44 35.33 35.11 34.75 34.27 33.72 33.18 32.73 32.41 32.20 32.08 32.00 31.96
25.99 25.77 25.39 24.92 24.42 23.91 23.41 22.95 22.59 22.39 22.36 22.45 22.61 22.77 22.93 23.12 23.44 23.96 24.75 25.78 26.93 28.06 29.03 29.80 30.42 30.98 31.59 32.33 33.25 34.28 35.35 36.35 37.21 37.88 38.36 38.64 38.74 38.64 38.31 37.74 36.94 35.96 34.87 33.72 32.54 31.34 30.11 28.84 27.56 26.33 25.24 24.36 23.74 23.31 23.00 22.74 22.51 22.26 21.97 21.55 20.97 20.25 19.50 18.91 18.63 18.76 19.34 20.28 21.46 22.77 24.10 25.40 26.61 27.67 28.54 29.17 29.58 29.79 29.85 29.80 29.69 29.56 29.44 29.42 29.57 29.97 30.64 31.51 32.49 33.45 34.24 34.75 34.95 34.86 34.58 34.23 33.93 33.76 33.69 33.68 33.68 33.67 33.68 33.76 33.93 34.14 34.31 34.36 34.22 33.84 33.25 32.47 31.57 30.62 29.67 28.74 27.85 27.03 26.32 25.74 25.28 24.94 24.66 24.43 24.25 24.15 24.12 24.15 24.27 24.50 24.80 25.12 25.33 25.35 25.10 24.58 23.89 23.15 22.50 22.01 21.70 21.53 21.40 21.19 20.83 20.26 19.52 18.72 17.99 17.45 17.11 16.88 16.66 16.41 16.15 15.99 16.04 16.32 16.84 17.54 18.32 19.13 19.93 20.77 21.70 22.74 23.89 25.09 26.34 27.63 28.99 30.42 31.92 33.41 34.80 36.00 36.93 37.55 37.86 37.86 37.58 37.10 36.52 35.99 35.60 35.40 35.34 35.36 35.35 35.26 35.05 34.75 34.40 34.06 33.77 33.57 33.44 33.35 33.29 33.25
27.26 27.04 26.66 26.17 25.63 25.08 24.55 24.08 23.69 23.43 23.28 23.22 23.19 23.20 23.24 23.36 23.61 24.05 24.72 25.63 26.68 27.75 28.69 29.43 30.02 30.54 31.12 31.85 32.76 33.82 34.93 36.00 36.96 37.74 38.32 38.70 38.86 38.77 38.40 37.75 36.86 35.80 34.61 33.37 32.10 30.80 29.48 28.13 26.78 25.52 24.41 23.54 22.92 22.52 22.23 22.00 21.79 21.58 21.34 20.97 20.43 19.73 19.00 18.40 18.09 18.18 18.69 19.55 20.65 21.87 23.11 24.33 25.49 26.51 27.32 27.90 28.25 28.40 28.42 28.38 28.33 28.29 28.30 28.38 28.62 29.07 29.76 30.68 31.73 32.81 33.77 34.51 34.96 35.14 35.11 34.96 34.80 34.70 34.65 34.60 34.52 34.43 34.38 34.42 34.58 34.80 34.99 35.04 34.87 34.45 33.77 32.89 31.88 30.80 29.69 28.60 27.55 26.60 25.78 25.14 24.64 24.25 23.92 23.63 23.40 23.26 23.21 23.25 23.38 23.57 23.81 24.04 24.16 24.11 23.84 23.36 22.75 22.12 21.57 21.18 20.96 20.84 20.72 20.48 20.06 19.44 18.67 17.88 17.21 16.78 16.58 16.50 16.40 16.22 15.98 15.79 15.75 15.93 16.33 16.90 17.56 18.24 18.94 19.71 20.61 21.64 22.77 23.93 25.10 26.30 27.56 28.92 30.37 31.83 33.21 34.38 35.30 35.94 36.34 36.50 36.44 36.21 35.87 35.53 35.28 35.17 35.19 35.27 35.35 35.37 35.32 35.20 35.05 34.92 34.82 34.74 34.69 34.64 34.58 34.54
28.31 28.13 27.80 27.34 26.82 26.27 25.73 25.26 24.88 24.60 24.40 24.26 24.14 24.06 24.03 24.08 24.23 24.53 25.02 25.72 26.60 27.54 28.40 29.09 29.63 30.10 30.64 31.32 32.20 33.24 34.36 35.48 36.50 37.37 38.04 38.51 38.73 38.68 38.30 37.62 36.68 35.54 34.29 32.97 31.61 30.22 28.81 27.41 26.05 24.78 23.68 22.80 22.18 21.77 21.49 21.29 21.13 20.98 20.79 20.47 19.97 19.31 18.60 18.01 17.69 17.73 18.16 18.94 19.94 21.04 22.18 23.30 24.37 25.32 26.08 26.61 26.91 27.02 27.01 26.98 26.99 27.05 27.19 27.40 27.73 28.24 28.95 29.88 30.96 32.10 33.18 34.10 34.80 35.25 35.49 35.58 35.60 35.61 35.62 35.57 35.47 35.34 35.26 35.28 35.41 35.58 35.72 35.72 35.49 35.01 34.29 33.37 32.32 31.18 30.00 28.81 27.64 26.55 25.61 24.85 24.27 23.81 23.43 23.09 22.82 22.63 22.54 22.54 22.63 22.78 22.96 23.11 23.18 23.11 22.86 22.46 21.94 21.40 20.93 20.59 20.39 20.27 20.12 19.82 19.33 18.64 17.84 17.08 16.49 16.18 16.11 16.18 16.22 16.14 15.96 15.77 15.68 15.77 16.06 16.51 17.05 17.62 18.23 18.94 19.81 20.82 21.92 23.03 24.10 25.17 26.29 27.52 28.87 30.26 31.59 32.73 33.63 34.31 34.81 35.15 35.34 35.37 35.28 35.13 35.03 35.01 35.09 35.23 35.38 35.50 35.59 35.65 35.71 35.78 35.85 35.91 35.93 35.90 35.85 35.80
29.15 29.03 28.79 28.43 27.97 27.44 26.92 26.47 26.12 25.86 25.68 25.54 25.42 25.32 25.25 25.24 25.27 25.38 25.63 26.08 26.73 27.50 28.24 28.87 29.37 29.81 30.30 30.94 31.77 32.79 33.91 35.04 36.09 36.99 37.70 38.20 38.45 38.41 38.05 37.35 36.38 35.20 33.89 32.51 31.08 29.63 28.20 26.81 25.48 24.25 23.18 22.31 21.67 21.24 20.96 20.79 20.68 20.59 20.44 20.15 19.67 19.04 18.36 17.79 17.46 17.46 17.81 18.47 19.35 20.33 21.36 22.38 23.35 24.22 24.92 25.40 25.65 25.71 25.68 25.65 25.69 25.86 26.13 26.50 26.95 27.53 28.29 29.22 30.30 31.45 32.60 33.65 34.55 35.26 35.77 36.11 36.34 36.51 36.61 36.62 36.54 36.43 36.36 36.37 36.44 36.52 36.55 36.43 36.11 35.55 34.77 33.83 32.77 31.64 30.45 29.21 27.96 26.75 25.67 24.78 24.07 23.53 23.11 22.76 22.47 22.26 22.13 22.08 22.12 22.20 22.32 22.42 22.47 22.40 22.21 21.87 21.44 20.95 20.50 20.14 19.91 19.73 19.52 19.15 18.60 17.88 17.09 16.38 15.89 15.68 15.74 15.93 16.10 16.14 16.04 15.88 15.76 15.78 15.98 16.31 16.73 17.19 17.72 18.37 19.19 20.17 21.23 22.28 23.26 24.20 25.16 26.23 27.44 28.72 29.95 31.04 31.94 32.66 33.28 33.82 34.26 34.56 34.72 34.78 34.83 34.93 35.08 35.27 35.47 35.68 35.89 36.12 36.37 36.61 36.83 37.01 37.11 37.13 37.09 37.05
29.87 29.82 29.69 29.44 29.06 28.58 28.10 27.68 27.37 27.17 27.04 26.96 26.90 26.84 26.77 26.68 26.57 26.48 26.48 26.67 27.08 27.66 28.28 28.85 29.32 29.75 30.23 30.85 31.67 32.66 33.75 34.86 35.88 36.75 37.44 37.91 38.15 38.11 37.74 37.05 36.06 34.86 33.50 32.06 30.59 29.12 27.71 26.38 25.13 24.00 22.99 22.15 21.51 21.07 20.80 20.65 20.57 20.50 20.36 20.07 19.59 18.98 18.34 17.80 17.47 17.43 17.69 18.21 18.94 19.79 20.69 21.61 22.50 23.29 23.91 24.31 24.50 24.51 24.43 24.39 24.47 24.73 25.15 25.68 26.29 27.00 27.84 28.81 29.90 31.05 32.21 33.34 34.39 35.31 36.06 36.65 37.10 37.43 37.65 37.74 37.73 37.68 37.64 37.63 37.63 37.59 37.45 37.17 36.70 36.02 35.17 34.18 33.12 31.99 30.82 29.58 28.29 27.00 25.80 24.77 23.95 23.33 22.87 22.54 22.28 22.10 21.96 21.89 21.86 21.89 21.95 22.02 22.06 22.02 21.86 21.58 21.18 20.70 20.21 19.79 19.45 19.18 18.89 18.48 17.90 17.20 16.47 15.84 15.45 15.34 15.48 15.77 16.05 16.20 16.18 16.05 15.91 15.87 15.96 16.18 16.49 16.85 17.30 17.88 18.65 19.59 20.61 21.61 22.52 23.34 24.15 25.05 26.09 27.23 28.35 29.37 30.26 31.04 31.79 32.51 33.18 33.72 34.12 34.40 34.63 34.86 35.11 35.36 35.62 35.91 36.23 36.60 36.97 37.34 37.69 37.97 38.16 38.25 38.26 38.25
30.60 30.60 30.55 30.39 30.08 29.67 29.24 28.87 28.61 28.47 28.41 28.40 28.42 28.42 28.36 28.21 27.96 27.69 27.47 27.43 27.62 28.02 28.53 29.05 29.53 29.99 30.50 31.14 31.94 32.90 33.95 34.99 35.93 36.71 37.32 37.73 37.93 37.87 37.51 36.83 35.84 34.61 33.21 31.73 30.23 28.78 27.42 26.18 25.05 24.03 23.11 22.34 21.73 21.32 21.06 20.92 20.83 20.74 20.57 20.25 19.78 19.20 18.60 18.10 17.79 17.71 17.88 18.25 18.80 19.47 20.23 21.02 21.81 22.50 23.02 23.33 23.43 23.38 23.26 23.20 23.31 23.66 24.22 24.95 25.77 26.67 27.65 28.71 29.84 30.99 32.15 33.31 34.45 35.53 36.48 37.28 37.92 38.42 38.76 38.95 39.02 39.01 38.98 38.94 38.83 38.63 38.31 37.84 37.21 36.40 35.44 34.38 33.26 32.13 30.96 29.73 28.43 27.11 25.85 24.74 23.83 23.15 22.68 22.37 22.17 22.05 21.95 21.87 21.82 21.79 21.82 21.87 21.92 21.90 21.76 21.49 21.09 20.58 20.01 19.47 19.01 18.63 18.27 17.83 17.28 16.64 15.99 15.47 15.17 15.14 15.36 15.72 16.08 16.31 16.34 16.22 16.05 15.93 15.93 16.03 16.24 16.53 16.91 17.45 18.18 19.07 20.06 21.02 21.86 22.59 23.26 24.01 24.88 25.86 26.86 27.80 28.67 29.50 30.36 31.23 32.07 32.80 33.39 33.88 34.31 34.72 35.12 35.48 35.82 36.19 36.60 37.04 37.48 37.92 38.33 38.69 38.98 39.16 39.25 39.28
31.45 31.46 31.44 31.33 31.09 30.75 30.39 30.09 29.89 29.79 29.77 29.81 29.87 29.90 29.83 29.62 29.26 28.84 28.45 28.23 28.25 28.50 28.92 29.42 29.94 30.47 31.04 31.71 32.51 33.42 34.38 35.32 36.14 36.81 37.33 37.68 37.84 37.77 37.42 36.75 35.76 34.50 33.07 31.58 30.09 28.67 27.38 26.23 25.22 24.31 23.50 22.82 22.29 21.93 21.69 21.54 21.42 21.27 21.06 20.72 20.26 19.71 19.17 18.72 18.43 18.33 18.40 18.61 18.95 19.41 19.98 20.61 21.25 21.81 22.20 22.39 22.40 22.28 22.13 22.07 22.21 22.64 23.35 24.28 25.35 26.49 27.68 28.88 30.08 31.26 32.42 33.59 34.78 35.96 37.06 38.02 38.81 39.44 39.89 40.16 40.28 40.29 40.23 40.10 39.86 39.49 38.99 38.35 37.57 36.64 35.57 34.40 33.20 32.00 30.81 29.58 28.31 27.00 25.74 24.61 23.67 22.96 22.48 22.19 22.04 21.98 21.94 21.89 21.84 21.80 21.82 21.88 21.95 21.95 21.83 21.55 21.12 20.54 19.87 19.20 18.61 18.12 17.70 17.27 16.77 16.21 15.66 15.23 15.01 15.05 15.33 15.75 16.16 16.42 16.47 16.35 16.13 15.94 15.83 15.85 15.99 16.25 16.62 17.15 17.85 18.71 19.65 20.56 21.34 21.97 22.53 23.13 23.84 24.67 25.54 26.40 27.24 28.10 29.02 29.98 30.92 31.76 32.49 33.16 33.81 34.45 35.04 35.56 36.03 36.49 36.96 37.44 37.89 38.32 38.74 39.15 39.52 39.80 39.97 40.05
32.42 32.43 32.42 32.34 32.17 31.92 31.66 31.43 31.28 31.19 31.16 31.18 31.22 31.21 31.09 30.80 30.35 29.82 29.32 28.97 28.87 29.02 29.39 29.90 30.48 31.09 31.73 32.43 33.19 34.02 34.87 35.67 36.37 36.95 37.41 37.72 37.86 37.79 37.44 36.77 35.77 34.51 33.09 31.61 30.17 28.82 27.60 26.52 25.58 24.76 24.05 23.48 23.07 22.78 22.58 22.42 22.25 22.04 21.79 21.46 21.03 20.53 20.03 19.62 19.35 19.23 19.21 19.27 19.41 19.63 19.96 20.38 20.82 21.20 21.42 21.47 21.38 21.21 21.05 20.99 21.17 21.66 22.50 23.63 24.95 26.36 27.78 29.17 30.49 31.72 32.91 34.10 35.32 36.56 37.74 38.79 39.67 40.37 40.87 41.19 41.32 41.30 41.17 40.92 40.53 40.01 39.37 38.61 37.73 36.71 35.53 34.24 32.93 31.66 30.42 29.19 27.94 26.68 25.46 24.36 23.43 22.72 22.22 21.94 21.82 21.80 21.82 21.82 21.81 21.81 21.85 21.96 22.08 22.12 22.01 21.72 21.24 20.58 19.82 19.04 18.33 17.74 17.28 16.86 16.42 15.94 15.46 15.09 14.93 15.03 15.37 15.84 16.28 16.55 16.59 16.45 16.19 15.93 15.76 15.73 15.85 16.13 16.53 17.08 17.77 18.60 19.48 20.31 21.00 21.53 21.98 22.45 23.03 23.71 24.44 25.20 25.99 26.85 27.78 28.77 29.73 30.63 31.47 32.29 33.14 34.00 34.82 35.55 36.19 36.78 37.31 37.79 38.20 38.58 38.96 39.37 39.78 40.13 40.38 40.50
33.50 33.51 33.52 33.50 33.42 33.28 33.14 33.00 32.87 32.75 32.64 32.55 32.47 32.36 32.13 31.75 31.22 30.61 30.04 29.61 29.43 29.52 29.87 30.42 31.06 31.75 32.43 33.12 33.81 34.52 35.24 35.92 36.55 37.08 37.52 37.83 37.98 37.90 37.54 36.85 35.85 34.60 33.22 31.82 30.46 29.18 28.01 26.97 26.07 25.32 24.71 24.26 23.96 23.77 23.61 23.44 23.23 22.98 22.71 22.40 22.01 21.57 21.12 20.73 20.45 20.29 20.20 20.14 20.10 20.09 20.17 20.33 20.54 20.70 20.74 20.65 20.46 20.25 20.07 20.02 20.20 20.74 21.67 22.96 24.50 26.15 27.80 29.38 30.85 32.20 33.46 34.69 35.94 37.19 38.38 39.45 40.33 41.03 41.53 41.83 41.93 41.85 41.61 41.24 40.73 40.10 39.38 38.56 37.63 36.55 35.30 33.93 32.53 31.18 29.90 28.65 27.42 26.21 25.05 24.00 23.11 22.40 21.89 21.58 21.47 21.49 21.58 21.66 21.73 21.81 21.93 22.10 22.28 22.38 22.30 22.00 21.47 20.74 19.90 19.03 18.24 17.59 17.08 16.67 16.28 15.86 15.43 15.08 14.94 15.07 15.45 15.95 16.40 16.68 16.73 16.59 16.33 16.05 15.85 15.81 15.96 16.28 16.75 17.33 18.03 18.81 19.61 20.33 20.89 21.30 21.64 21.99 22.44 22.97 23.56 24.20 24.91 25.72 26.63 27.60 28.57 29.50 30.42 31.37 32.39 33.44 34.46 35.40 36.24 36.97 37.58 38.06 38.41 38.71 39.01 39.39 39.81 40.20 40.50 40.66
34.68 34.72 34.78 34.84 34.88 34.88 34.85 34.79 34.65 34.45 34.20 33.94 33.69 33.41 33.04 32.55 31.95 31.29 30.67 30.20 29.97 30.04 30.38 30.95 31.64 32.36 33.04 33.67 34.26 34.84 35.44 36.06 36.65 37.20 37.66 37.99 38.14 38.05 37.66 36.95 35.95 34.74 33.45 32.15 30.90 29.70 28.57 27.55 26.67 25.96 25.44 25.11 24.93 24.83 24.72 24.54 24.30 24.04 23.76 23.47 23.13 22.74 22.32 21.94 21.63 21.43 21.27 21.12 20.94 20.74 20.57 20.47 20.43 20.38 20.25 20.04 19.77 19.50 19.29 19.21 19.38 19.92 20.89 22.28 23.95 25.78 27.62 29.39 31.03 32.52 33.90 35.21 36.49 37.72 38.87 39.87 40.69 41.31 41.74 41.97 41.99 41.83 41.51 41.05 40.46 39.79 39.04 38.20 37.26 36.15 34.87 33.48 32.06 30.68 29.38 28.13 26.91 25.73 24.61 23.59 22.72 22.01 21.48 21.18 21.08 21.15 21.32 21.51 21.70 21.90 22.12 22.38 22.63 22.79 22.75 22.45 21.88 21.10 20.19 19.27 18.44 17.75 17.22 16.82 16.45 16.06 15.64 15.28 15.12 15.24 15.61 16.11 16.56 16.86 16.95 16.87 16.67 16.44 16.27 16.25 16.44 16.82 17.34 17.95 18.65 19.37 20.06 20.64 21.05 21.31 21.52 21.76 22.08 22.47 22.91 23.43 24.03 24.76 25.62 26.56 27.54 28.52 29.52 30.57 31.69 32.87 34.05 35.15 36.16 37.02 37.71 38.20 38.51 38.72 38.95 39.27 39.67 40.07 40.39 40.55
35.94 36.02 36.17 36.34 36.51 36.65 36.72 36.69 36.52 36.21 35.80 35.34 34.89 34.43 33.92 33.33 32.68 31.99 31.36 30.87 30.60 30.63 30.94 31.49 32.17 32.87 33.51 34.06 34.54 35.02 35.55 36.14 36.75 37.33 37.83 38.19 38.33 38.21 37.78 37.05 36.07 34.94 33.76 32.59 31.44 30.32 29.23 28.23 27.39 26.74 26.30 26.06 25.97 25.93 25.86 25.68 25.43 25.15 24.87 24.59 24.27 23.91 23.51 23.12 22.78 22.52 22.32 22.11 21.84 21.49 21.12 20.79 20.53 20.29 20.03 19.71 19.36 19.04 18.78 18.65 18.77 19.27 20.23 21.62 23.35 25.26 27.23 29.14 30.93 32.58 34.10 35.52 36.84 38.06 39.14 40.03 40.72 41.21 41.52 41.64 41.57 41.34 40.96 40.46 39.86 39.17 38.42 37.58 36.63 35.54 34.30 32.96 31.60 30.27 29.00 27.77 26.55 25.37 24.26 23.26 22.38 21.65 21.12 20.82 20.76 20.91 21.18 21.50 21.83 22.16 22.50 22.86 23.19 23.42 23.44 23.16 22.58 21.75 20.81 19.87 19.02 18.33 17.80 17.39 17.04 16.65 16.23 15.84 15.61 15.66 15.95 16.39 16.82 17.14 17.33 17.39 17.32 17.20 17.10 17.13 17.36 17.77 18.32 18.96 19.63 20.28 20.85 21.26 21.51 21.63 21.71 21.82 22.01 22.26 22.57 22.95 23.43 24.05 24.83 25.75 26.75 27.79 28.87 30.00 31.19 32.43 33.67 34.87 35.98 36.93 37.68 38.19 38.49 38.66 38.83 39.09 39.44 39.81 40.10 40.26
37.28 37.41 37.64 37.93 38.22 38.46 38.59 38.56 38.32 37.88 37.31 36.68 36.06 35.45 34.84 34.19 33.51 32.82 32.19 31.69 31.38 31.34 31.58 32.04 32.65 33.28 33.84 34.31 34.72 35.14 35.64 36.24 36.88 37.50 38.02 38.36 38.48 38.31 37.85 37.12 36.19 35.16 34.11 33.08 32.05 31.01 29.99 29.05 28.26 27.67 27.30 27.12 27.07 27.05 26.98 26.80 26.54 26.25 25.95 25.65 25.33 24.97 24.56 24.14 23.77 23.47 23.24 23.00 22.69 22.26 21.76 21.26 20.82 20.43 20.04 19.63 19.22 18.83 18.51 18.32 18.39 18.83 19.72 21.05 22.73 24.64 26.64 28.63 30.53 32.32 33.99 35.53 36.93 38.16 39.18 39.97 40.51 40.85 41.00 41.00 40.86 40.60 40.21 39.71 39.11 38.41 37.65 36.80 35.85 34.80 33.65 32.44 31.22 30.03 28.85 27.66 26.45 25.27 24.15 23.13 22.22 21.47 20.93 20.65 20.65 20.88 21.26 21.70 22.17 22.63 23.09 23.54 23.97 24.30 24.40 24.19 23.63 22.81 21.85 20.92 20.09 19.41 18.89 18.48 18.13 17.76 17.32 16.88 16.56 16.47 16.61 16.91 17.27 17.63 17.94 18.17 18.30 18.34 18.35 18.44 18.69 19.12 19.68 20.31 20.95 21.53 21.99 22.27 22.37 22.36 22.31 22.30 22.36 22.48 22.66 22.89 23.23 23.72 24.40 25.27 26.27 27.37 28.50 29.68 30.89 32.14 33.40 34.61 35.73 36.71 37.48 38.02 38.34 38.52 38.67 38.90 39.19 39.48 39.71 39.83
38.63 38.80 39.11 39.48 39.85 40.15 40.29 40.21 39.88 39.33 38.63 37.87 37.13 36.43 35.77 35.10 34.42 33.76 33.14 32.62 32.26 32.13 32.24 32.58 33.05 33.56 34.04 34.45 34.83 35.25 35.77 36.39 37.05 37.67 38.16 38.47 38.52 38.29 37.80 37.09 36.24 35.34 34.45 33.57 32.68 31.76 30.84 29.99 29.27 28.73 28.39 28.21 28.14 28.10 28.00 27.82 27.57 27.27 26.95 26.61 26.24 25.83 25.38 24.91 24.49 24.16 23.93 23.71 23.42 22.99 22.44 21.85 21.28 20.75 20.23 19.72 19.21 18.75 18.37 18.15 18.18 18.56 19.37 20.59 22.16 23.98 25.93 27.92 29.89 31.78 33.58 35.26 36.76 38.04 39.06 39.76 40.19 40.37 40.40 40.31 40.12 39.85 39.48 38.99 38.38 37.66 36.85 35.97 35.03 34.04 33.02 31.98 30.97 29.95 28.91 27.81 26.65 25.48 24.36 23.32 22.38 21.60 21.06 20.81 20.87 21.16 21.61 22.13 22.69 23.25 23.81 24.37 24.91 25.35 25.58 25.47 25.00 24.24 23.34 22.45 21.66 21.03 20.53 20.14 19.81 19.44 18.99 18.49 18.05 17.77 17.69 17.81 18.05 18.40 18.82 19.23 19.57 19.79 19.93 20.08 20.36 20.79 21.34 21.96 22.58 23.11 23.49 23.69 23.70 23.59 23.43 23.31 23.25 23.24 23.28 23.34 23.50 23.82 24.36 25.12 26.08 27.16 28.30 29.49 30.71 31.94 33.16 34.32 35.38 36.32 37.10 37.67 38.04 38.28 38.47 38.68 38.91 39.12 39.27 39.34
39.94 40.13 40.47 40.88 41.28 41.58 41.68 41.53 41.11 40.46 39.67 38.83 38.03 37.30 36.62 35.97 35.31 34.66 34.04 33.49 33.08 32.85 32.84 33.01 33.34 33.73 34.14 34.53 34.92 35.37 35.91 36.53 37.19 37.78 38.22 38.45 38.41 38.12 37.61 36.93 36.19 35.45 34.73 34.02 33.30 32.53 31.74 31.00 30.35 29.84 29.47 29.25 29.11 29.00 28.88 28.69 28.45 28.16 27.82 27.43 26.99 26.49 25.96 25.43 24.97 24.62 24.39 24.22 24.00 23.63 23.12 22.50 21.84 21.19 20.53 19.88 19.26 18.72 18.30 18.07 18.09 18.44 19.16 20.25 21.66 23.33 25.18 27.12 29.11 31.07 32.98 34.77 36.40 37.78 38.84 39.52 39.86 39.94 39.88 39.73 39.53 39.26 38.90 38.41 37.77 36.99 36.12 35.20 34.28 33.37 32.48 31.64 30.82 29.99 29.11 28.13 27.07 25.97 24.88 23.85 22.91 22.12 21.59 21.36 21.45 21.76 22.22 22.76 23.34 23.95 24.59 25.25 25.90 26.47 26.83 26.87 26.54 25.92 25.14 24.36 23.67 23.11 22.68 22.33 22.02 21.67 21.21 20.64 20.06 19.57 19.26 19.15 19.24 19.54 20.00 20.54 21.05 21.44 21.71 21.95 22.25 22.68 23.22 23.83 24.43 24.95 25.31 25.49 25.47 25.30 25.07 24.84 24.67 24.54 24.41 24.28 24.22 24.31 24.63 25.22 26.03 27.01 28.10 29.26 30.46 31.67 32.83 33.90 34.87 35.73 36.47 37.07 37.52 37.86 38.13 38.37 38.56 38.71 38.80 38.83
41.08 41.27 41.60 42.00 42.38 42.63 42.67 42.44 41.94 41.23 40.41 39.55 38.73 38.00 37.32 36.68 36.03 35.37 34.72 34.14 33.67 33.35 33.23 33.29 33.50 33.82 34.18 34.57 34.99 35.46 36.01 36.62 37.25 37.79 38.16 38.30 38.19 37.84 37.33 36.72 36.11 35.54 35.01 34.49 33.93 33.32 32.67 32.01 31.40 30.87 30.45 30.14 29.92 29.74 29.59 29.42 29.21 28.95 28.60 28.16 27.63 27.03 26.41 25.83 25.32 24.96 24.75 24.63 24.49 24.22 23.77 23.17 22.46 21.69 20.88 20.08 19.34 18.72 18.28 18.07 18.11 18.44 19.09 20.05 21.30 22.80 24.52 26.39 28.35 30.34 32.32 34.21 35.96 37.46 38.59 39.29 39.61 39.64 39.53 39.36 39.14 38.87 38.48 37.95 37.26 36.42 35.50 34.57 33.68 32.86 32.10 31.40 30.75 30.08 29.34 28.51 27.58 26.59 25.60 24.64 23.74 22.98 22.46 22.25 22.32 22.60 23.00 23.49 24.04 24.65 25.34 26.08 26.84 27.54 28.04 28.23 28.08 27.65 27.06 26.46 25.93 25.50 25.16 24.88 24.61 24.27 23.78 23.14 22.43 21.77 21.25 20.94 20.87 21.06 21.50 22.09 22.70 23.22 23.61 23.94 24.28 24.71 25.24 25.84 26.44 26.97 27.36 27.55 27.54 27.36 27.07 26.76 26.48 26.21 25.91 25.57 25.25 25.05 25.09 25.40 25.99 26.78 27.75 28.84 30.00 31.18 32.28 33.27 34.12 34.89 35.58 36.20 36.74 37.19 37.57 37.87 38.08 38.21 38.28 38.31
41.96 42.11 42.40 42.74 43.05 43.23 43.21 42.94 42.42 41.72 40.91 40.06 39.25 38.51 37.83 37.17 36.50 35.80 35.10 34.45 33.92 33.54 33.35 33.36 33.54 33.82 34.18 34.58 35.02 35.50 36.05 36.64 37.23 37.73 38.04 38.12 37.95 37.58 37.09 36.58 36.12 35.74 35.41 35.07 34.68 34.20 33.64 33.02 32.40 31.81 31.29 30.87 30.56 30.34 30.18 30.05 29.89 29.67 29.33 28.85 28.25 27.58 26.90 26.26 25.73 25.36 25.15 25.06 24.98 24.79 24.42 23.84 23.09 22.22 21.28 20.34 19.49 18.82 18.37 18.19 18.27 18.61 19.21 20.05 21.16 22.51 24.10 25.89 27.79 29.76 31.75 33.70 35.53 37.12 38.34 39.10 39.43 39.46 39.34 39.14 38.89 38.57 38.13 37.54 36.79 35.92 35.00 34.10 33.28 32.55 31.90 31.31 30.75 30.19 29.56 28.85 28.06 27.22 26.36 25.50 24.69 23.99 23.50 23.28 23.29 23.47 23.77 24.16 24.65 25.26 25.98 26.80 27.67 28.47 29.09 29.43 29.46 29.25 28.91 28.53 28.20 27.93 27.71 27.52 27.29 26.94 26.42 25.72 24.92 24.14 23.50 23.05 22.85 22.94 23.30 23.86 24.50 25.09 25.58 25.98 26.37 26.81 27.34 27.94 28.55 29.09 29.50 29.73 29.73 29.53 29.21 28.82 28.44 28.03 27.55 26.99 26.40 25.90 25.60 25.59 25.88 26.43 27.22 28.20 29.31 30.44 31.49 32.40 33.17 33.84 34.48 35.11 35.71 36.27 36.76 37.15 37.42 37.60 37.71 37.76
42.50 42.61 42.82 43.06 43.28 43.41 43.37 43.11 42.65 42.02 41.26 40.45 39.65 38.88 38.16 37.45 36.72 35.96 35.19 34.47 33.87 33.44 33.23 33.24 33.42 33.73 34.11 34.52 34.97 35.47 36.02 36.62 37.19 37.66 37.94 37.99 37.80 37.46 37.04 36.65 36.36 36.17 36.03 35.86 35.61 35.22 34.70 34.06 33.36 32.65 32.00 31.46 31.06 30.82 30.70 30.64 30.57 30.40 30.08 29.60 28.97 28.27 27.56 26.91 26.35 25.96 25.73 25.63 25.57 25.41 25.07 24.49 23.70 22.74 21.70 20.67 19.75 19.05 18.61 18.47 18.60 18.96 19.53 20.31 21.32 22.57 24.06 25.75 27.57 29.47 31.39 33.32 35.16 36.79 38.06 38.87 39.25 39.31 39.17 38.94 38.64 38.25 37.74 37.08 36.29 35.43 34.56 33.76 33.06 32.45 31.89 31.37 30.86 30.34 29.78 29.16 28.48 27.77 27.03 26.28 25.56 24.92 24.46 24.19 24.10 24.15 24.32 24.62 25.07 25.69 26.46 27.35 28.30 29.19 29.91 30.39 30.61 30.62 30.52 30.39 30.26 30.15 30.04 29.92 29.72 29.37 28.81 28.07 27.24 26.44 25.78 25.30 25.05 25.05 25.32 25.81 26.42 27.04 27.59 28.05 28.49 28.96 29.51 30.11 30.72 31.25 31.65 31.86 31.84 31.62 31.24 30.78 30.28 29.74 29.11 28.35 27.53 26.74 26.13 25.80 25.79 26.09 26.68 27.50 28.50 29.57 30.58 31.44 32.14 32.74 33.33 33.94 34.58 35.21 35.78 36.25 36.60 36.86 37.03 37.12
42.71 42.78 42.89 43.04 43.17 43.27 43.25 43.09 42.74 42.22 41.55 40.79 39.97 39.16 38.37 37.58 36.77 35.93 35.10 34.31 33.65 33.17 32.94 32.95 33.16 33.50 33.90 34.32 34.79 35.32 35.92 36.54 37.13 37.61 37.89 37.95 37.81 37.53 37.22 36.97 36.84 36.83 36.86 36.86 36.72 36.39 35.86 35.14 34.32 33.46 32.65 31.97 31.49 31.24 31.18 31.22 31.24 31.16 30.89 30.44 29.85 29.17 28.47 27.81 27.24 26.80 26.52 26.38 26.29 26.12 25.77 25.17 24.31 23.28 22.16 21.06 20.12 19.41 19.00 18.90 19.07 19.47 20.04 20.80 21.77 22.97 24.39 26.00 27.72 29.49 31.30 33.10 34.85 36.43 37.69 38.53 38.95 39.02 38.88 38.61 38.24 37.78 37.21 36.52 35.73 34.92 34.16 33.51 32.97 32.49 32.02 31.55 31.06 30.56 30.03 29.46 28.85 28.21 27.55 26.88 26.21 25.60 25.11 24.76 24.56 24.48 24.54 24.77 25.21 25.87 26.70 27.66 28.67 29.64 30.46 31.08 31.49 31.72 31.85 31.91 31.93 31.93 31.91 31.84 31.66 31.30 30.74 30.00 29.21 28.49 27.91 27.51 27.29 27.27 27.47 27.87 28.42 29.01 29.59 30.11 30.62 31.15 31.73 32.34 32.91 33.39 33.72 33.86 33.78 33.48 33.03 32.48 31.86 31.19 30.41 29.52 28.53 27.56 26.73 26.16 25.91 25.99 26.37 27.00 27.85 28.80 29.74 30.55 31.21 31.77 32.30 32.86 33.48 34.12 34.72 35.24 35.65 35.98 36.22 36.35
42.71 42.72 42.75 42.80 42.88 42.96 43.02 42.97 42.76 42.37 41.79 41.06 40.24 39.38 38.50 37.62 36.73 35.82 34.93 34.10 33.39 32.86 32.58 32.56 32.77 33.10 33.49 33.92 34.41 34.99 35.66 36.36 37.01 37.52 37.84 37.94 37.88 37.70 37.51 37.40 37.42 37.57 37.77 37.91 37.89 37.62 37.07 36.26 35.30 34.27 33.29 32.48 31.92 31.65 31.64 31.76 31.89 31.90 31.73 31.36 30.84 30.23 29.58 28.94 28.34 27.86 27.53 27.33 27.18 26.97 26.57 25.91 24.98 23.86 22.67 21.54 20.58 19.88 19.50 19.43 19.63 20.05 20.65 21.43 22.41 23.61 25.01 26.55 28.16 29.78 31.41 33.01 34.58 36.01 37.18 37.99 38.40 38.48 38.32 38.02 37.62 37.13 36.55 35.86 35.12 34.40 33.79 33.30 32.92 32.56 32.17 31.73 31.25 30.75 30.24 29.70 29.14 28.54 27.91 27.25 26.58 25.95 25.39 24.93 24.60 24.40 24.39 24.59 25.05 25.74 26.62 27.64 28.71 29.75 30.69 31.47 32.09 32.54 32.86 33.05 33.15 33.19 33.20 33.16 33.01 32.67 32.13 31.46 30.78 30.21 29.81 29.56 29.44 29.45 29.62 29.94 30.41 30.97 31.55 32.14 32.72 33.33 33.95 34.55 35.06 35.44 35.66 35.68 35.49 35.09 34.53 33.86 33.11 32.31 31.42 30.44 29.40 28.37 27.46 26.79 26.42 26.33 26.52 26.95 27.58 28.37 29.18 29.92 30.52 31.02 31.49 31.98 32.52 33.10 33.67 34.18 34.62 34.98 35.26 35.42
42.62 42.59 42.55 42.52 42.54 42.62 42.73 42.78 42.68 42.38 41.89 41.20 40.39 39.50 38.56 37.61 36.65 35.69 34.77 33.92 33.16 32.58 32.23 32.15 32.29 32.56 32.90 33.30 33.80 34.44 35.19 35.97 36.68 37.23 37.59 37.76 37.79 37.74 37.68 37.70 37.87 38.18 38.54 38.84 38.95 38.76 38.23 37.38 36.30 35.14 34.03 33.10 32.46 32.14 32.12 32.29 32.48 32.58 32.50 32.25 31.84 31.34 30.77 30.17 29.59 29.09 28.72 28.46 28.25 27.97 27.50 26.75 25.73 24.52 23.26 22.09 21.13 20.45 20.07 20.00 20.20 20.61 21.22 22.03 23.06 24.30 25.70 27.19 28.69 30.16 31.57 32.93 34.25 35.47 36.50 37.23 37.60 37.66 37.49 37.18 36.80 36.35 35.82 35.21 34.55 33.94 33.45 33.09 32.82 32.53 32.18 31.73 31.24 30.75 30.26 29.78 29.27 28.70 28.07 27.38 26.66 25.95 25.30 24.73 24.28 23.99 23.90 24.08 24.54 25.25 26.17 27.22 28.35 29.48 30.55 31.53 32.37 33.05 33.53 33.81 33.94 33.97 33.97 33.94 33.82 33.54 33.07 32.52 32.01 31.65 31.45 31.39 31.40 31.49 31.66 31.94 32.35 32.87 33.47 34.11 34.77 35.45 36.10 36.67 37.10 37.36 37.43 37.31 36.98 36.45 35.75 34.93 34.04 33.11 32.15 31.16 30.16 29.21 28.38 27.76 27.37 27.21 27.24 27.45 27.85 28.42 29.06 29.66 30.16 30.57 30.93 31.31 31.73 32.19 32.66 33.12 33.53 33.88 34.16 34.32
42.57 42.50 42.38 42.27 42.22 42.27 42.37 42.44 42.38 42.13 41.69 41.06 40.29 39.42 38.49 37.51 36.53 35.55 34.62 33.75 32.98 32.35 31.93 31.74 31.76 31.92 32.16 32.50 32.97 33.63 34.43 35.26 36.00 36.58 36.97 37.21 37.34 37.41 37.49 37.66 37.99 38.46 39.00 39.49 39.76 39.70 39.25 38.42 37.32 36.10 34.92 33.93 33.21 32.82 32.73 32.85 33.04 33.16 33.16 33.01 32.74 32.37 31.91 31.40 30.88 30.42 30.05 29.76 29.48 29.10 28.52 27.67 26.55 25.25 23.93 22.74 21.77 21.09 20.69 20.57 20.70 21.05 21.63 22.46 23.54 24.83 26.24 27.69 29.10 30.40 31.60 32.71 33.78 34.79 35.67 36.30 36.62 36.66 36.51 36.25 35.94 35.59 35.17 34.67 34.12 33.60 33.18 32.86 32.58 32.28 31.89 31.41 30.91 30.42 29.98 29.56 29.11 28.58 27.94 27.21 26.43 25.65 24.92 24.25 23.70 23.31 23.16 23.28 23.71 24.41 25.33 26.41 27.58 28.80 30.02 31.20 32.27 33.17 33.82 34.20 34.35 34.37 34.36 34.35 34.29 34.09 33.76 33.37 33.06 32.90 32.90 33.00 33.16 33.33 33.55 33.84 34.23 34.74 35.34 36.01 36.72 37.43 38.07 38.59 38.92 39.07 39.01 38.74 38.26 37.56 36.69 35.71 34.69 33.67 32.68 31.75 30.88 30.12 29.49 29.02 28.71 28.52 28.44 28.46 28.63 28.96 29.38 29.80 30.15 30.42 30.65 30.88 31.14 31.43 31.76 32.10 32.44 32.75 32.99 33.13
42.54 42.43 42.24 42.03 41.88 41.83 41.84 41.83 41.73 41.48 41.08 40.53 39.84 39.05 38.18 37.25 36.29 35.32 34.40 33.54 32.77 32.13 31.63 31.32 31.18 31.18 31.29 31.52 31.93 32.56 33.35 34.18 34.92 35.49 35.90 36.19 36.41 36.61 36.84 37.18 37.68 38.34 39.09 39.77 40.24 40.36 40.05 39.33 38.31 37.14 35.98 34.99 34.23 33.75 33.54 33.53 33.61 33.69 33.70 33.63 33.48 33.25 32.93 32.54 32.14 31.77 31.45 31.14 30.79 30.30 29.59 28.60 27.37 26.01 24.64 23.43 22.45 21.74 21.31 21.11 21.12 21.36 21.86 22.67 23.77 25.08 26.50 27.90 29.20 30.35 31.35 32.25 33.12 33.98 34.75 35.34 35.65 35.71 35.60 35.42 35.23 35.00 34.71 34.33 33.87 33.39 32.96 32.56 32.18 31.76 31.27 30.74 30.22 29.75 29.36 29.00 28.61 28.12 27.48 26.72 25.91 25.10 24.31 23.59 22.96 22.49 22.26 22.31 22.67 23.32 24.21 25.28 26.49 27.77 29.11 30.46 31.74 32.85 33.69 34.20 34.42 34.48 34.51 34.55 34.58 34.51 34.35 34.16 34.05 34.09 34.25 34.49 34.75 35.02 35.30 35.63 36.04 36.54 37.14 37.81 38.50 39.18 39.77 40.21 40.47 40.52 40.35 39.95 39.29 38.41 37.35 36.21 35.09 34.04 33.10 32.29 31.62 31.10 30.71 30.45 30.26 30.10 29.94 29.81 29.78 29.88 30.07 30.28 30.45 30.57 30.65 30.72 30.80 30.90 31.04 31.23 31.44 31.66 31.84 31.95
42.40 42.25 41.99 41.67 41.38 41.16 41.01 40.86 40.66 40.39 40.02 39.55 38.98 38.32 37.57 36.73 35.84 34.93 34.04 33.22 32.47 31.80 31.23 30.78 30.48 30.30 30.26 30.38 30.71 31.28 32.01 32.78 33.48 34.03 34.44 34.77 35.07 35.39 35.77 36.28 36.98 37.85 38.81 39.71 40.39 40.71 40.59 40.06 39.20 38.18 37.16 36.23 35.48 34.92 34.56 34.38 34.31 34.27 34.23 34.18 34.11 33.99 33.80 33.56 33.30 33.05 32.81 32.51 32.09 31.48 30.61 29.49 28.15 26.72 25.32 24.08 23.09 22.36 21.87 21.58 21.47 21.57 21.95 22.70 23.77 25.07 26.45 27.78 28.96 29.96 30.81 31.56 32.32 33.11 33.86 34.48 34.85 35.00 34.98 34.90 34.81 34.69 34.50 34.21 33.80 33.30 32.77 32.20 31.62 31.02 30.41 29.81 29.28 28.82 28.46 28.15 27.81 27.34 26.71 25.95 25.15 24.35 23.58 22.83 22.17 21.67 21.37 21.35 21.62 22.19 23.01 24.04 25.22 26.54 27.94 29.40 30.83 32.11 33.12 33.80 34.17 34.35 34.49 34.65 34.81 34.92 34.96 35.00 35.09 35.30 35.59 35.93 36.27 36.61 36.96 37.32 37.74 38.23 38.78 39.39 40.01 40.61 41.12 41.50 41.70 41.68 41.42 40.88 40.05 38.98 37.74 36.47 35.28 34.27 33.45 32.83 32.39 32.11 31.96 31.88 31.82 31.70 31.51 31.28 31.09 30.98 30.97 30.98 30.99 30.96 30.90 30.83 30.74 30.65 30.58 30.57 30.62 30.72 30.82 30.88
41.98 41.79 41.45 41.02 40.58 40.18 39.84 39.52 39.21 38.90 38.56 38.18 37.74 37.22 36.61 35.91 35.13 34.31 33.49 32.71 31.98 31.28 30.61 30.02 29.54 29.21 29.05 29.09 29.35 29.83 30.47 31.16 31.80 32.32 32.74 33.10 33.47 33.89 34.41 35.09 35.97 37.03 38.20 39.31 40.21 40.75 40.86 40.56 39.94 39.16 38.33 37.55 36.85 36.25 35.78 35.43 35.18 35.00 34.86 34.77 34.72 34.65 34.56 34.43 34.30 34.17 34.01 33.74 33.27 32.55 31.55 30.28 28.84 27.34 25.90 24.65 23.65 22.90 22.38 22.02 21.80 21.77 22.04 22.67 23.66 24.88 26.17 27.39 28.44 29.31 30.04 30.73 31.46 32.26 33.08 33.80 34.31 34.60 34.72 34.75 34.73 34.68 34.54 34.27 33.85 33.28 32.59 31.81 31.00 30.20 29.45 28.79 28.23 27.79 27.45 27.16 26.83 26.37 25.77 25.05 24.29 23.54 22.79 22.08 21.44 20.94 20.63 20.56 20.75 21.21 21.93 22.87 23.99 25.27 26.67 28.15 29.64 31.02 32.18 33.04 33.61 33.99 34.31 34.65 35.00 35.32 35.60 35.87 36.17 36.53 36.94 37.36 37.77 38.15 38.51 38.88 39.26 39.68 40.14 40.64 41.16 41.65 42.09 42.41 42.57 42.50 42.16 41.50 40.52 39.27 37.89 36.54 35.35 34.42 33.76 33.34 33.13 33.06 33.09 33.16 33.19 33.12 32.93 32.63 32.32 32.05 31.86 31.71 31.58 31.43 31.27 31.07 30.85 30.59 30.35 30.15 30.02 29.97 29.97 29.98
41.15 40.93 40.53 40.01 39.45 38.90 38.39 37.92 37.51 37.15 36.83 36.52 36.18 35.79 35.33 34.78 34.15 33.44 32.70 31.97 31.23 30.46 29.68 28.94 28.32 27.89 27.67 27.68 27.90 28.31 28.86 29.47 30.04 30.55 30.98 31.38 31.80 32.31 32.94 33.75 34.76 35.98 37.31 38.62 39.74 40.52 40.88 40.84 40.50 40.00 39.42 38.82 38.22 37.64 37.12 36.66 36.28 35.95 35.69 35.50 35.38 35.31 35.24 35.18 35.13 35.09 35.00 34.76 34.28 33.48 32.36 30.98 29.45 27.89 26.44 25.18 24.18 23.44 22.90 22.50 22.22 22.09 22.24 22.74 23.59 24.66 25.81 26.87 27.78 28.53 29.19 29.86 30.63 31.51 32.44 33.31 34.01 34.49 34.77 34.91 34.95 34.91 34.76 34.46 33.97 33.27 32.41 31.42 30.40 29.43 28.55 27.83 27.25 26.81 26.48 26.19 25.86 25.42 24.84 24.16 23.45 22.75 22.05 21.39 20.81 20.37 20.10 20.02 20.15 20.51 21.10 21.92 22.93 24.12 25.45 26.87 28.33 29.73 30.98 32.00 32.78 33.41 33.97 34.53 35.11 35.66 36.18 36.69 37.19 37.71 38.24 38.74 39.19 39.59 39.93 40.24 40.54 40.84 41.17 41.53 41.92 42.32 42.69 42.96 43.07 42.95 42.53 41.78 40.68 39.34 37.89 36.51 35.37 34.55 34.05 33.81 33.77 33.85 34.00 34.15 34.25 34.21 34.02 33.68 33.27 32.87 32.54 32.27 32.02 31.78 31.52 31.24 30.92 30.57 30.20 29.86 29.57 29.37 29.26 29.21
39.91 39.67 39.23 38.67 38.04 37.41 36.79 36.22 35.73 35.33 35.00 34.70 34.41 34.11 33.78 33.39 32.91 32.33 31.68 30.96 30.17 29.31 28.41 27.55 26.85 26.38 26.17 26.20 26.43 26.80 27.28 27.81 28.34 28.83 29.29 29.74 30.22 30.81 31.52 32.41 33.51 34.81 36.27 37.74 39.06 40.08 40.71 40.95 40.90 40.68 40.37 39.98 39.53 39.03 38.52 38.02 37.55 37.11 36.71 36.39 36.16 36.01 35.92 35.87 35.87 35.87 35.82 35.60 35.10 34.26 33.07 31.63 30.04 28.46 27.02 25.79 24.82 24.10 23.57 23.17 22.85 22.66 22.70 23.05 23.70 24.57 25.50 26.37 27.11 27.74 28.36 29.06 29.91 30.91 31.97 33.01 33.89 34.57 35.01 35.26 35.34 35.27 35.06 34.66 34.05 33.22 32.20 31.04 29.86 28.75 27.78 27.00 26.41 25.97 25.66 25.38 25.06 24.64 24.08 23.43 22.75 22.07 21.41 20.81 20.31 19.96 19.77 19.72 19.81 20.07 20.54 21.23 22.13 23.19 24.39 25.69 27.03 28.37 29.64 30.77 31.76 32.64 33.46 34.27 35.08 35.86 36.61 37.33 38.03 38.70 39.34 39.93 40.43 40.83 41.13 41.36 41.55 41.71 41.89 42.11 42.37 42.67 42.97 43.17 43.21 43.01 42.52 41.71 40.58 39.22 37.80 36.49 35.44 34.73 34.36 34.26 34.32 34.48 34.66 34.82 34.92 34.89 34.68 34.30 33.82 33.32 32.87 32.50 32.16 31.83 31.49 31.13 30.77 30.37 29.96 29.54 29.15 28.82 28.59 28.48
38.37 38.11 37.66 37.09 36.47 35.82 35.18 34.57 34.03 33.59 33.22 32.89 32.60 32.32 32.07 31.80 31.45 30.99 30.40 29.68 28.84 27.89 26.90 25.97 25.23 24.78 24.63 24.74 25.02 25.40 25.83 26.29 26.78 27.27 27.76 28.27 28.82 29.48 30.26 31.20 32.33 33.68 35.21 36.81 38.31 39.56 40.45 40.97 41.21 41.26 41.19 41.02 40.74 40.36 39.91 39.43 38.92 38.39 37.86 37.39 37.03 36.78 36.64 36.58 36.58 36.59 36.54 36.31 35.81 34.95 33.74 32.28 30.70 29.15 27.76 26.60 25.69 25.02 24.51 24.11 23.78 23.54 23.48 23.67 24.11 24.71 25.38 26.01 26.56 27.07 27.65 28.39 29.35 30.48 31.69 32.87 33.91 34.75 35.33 35.65 35.74 35.62 35.30 34.77 34.02 33.05 31.89 30.63 29.34 28.15 27.12 26.31 25.72 25.32 25.03 24.79 24.51 24.11 23.58 22.94 22.25 21.57 20.94 20.39 19.98 19.72 19.60 19.59 19.67 19.87 20.24 20.82 21.60 22.53 23.57 24.68 25.85 27.06 28.27 29.46 30.61 31.71 32.78 33.84 34.87 35.85 36.79 37.68 38.53 39.34 40.09 40.76 41.31 41.72 42.01 42.18 42.27 42.32 42.37 42.46 42.60 42.80 42.99 43.09 43.02 42.73 42.17 41.33 40.23 38.96 37.67 36.50 35.60 35.02 34.75 34.72 34.83 34.98 35.13 35.23 35.26 35.18 34.92 34.49 33.94 33.36 32.82 32.37 31.95 31.53 31.11 30.69 30.30 29.91 29.50 29.06 28.62 28.21 27.89 27.72
36.69 36.42 35.97 35.43 34.84 34.25 33.64 33.06 32.51 32.03 31.61 31.22 30.87 30.56 30.32 30.10 29.83 29.44 28.89 28.16 27.29 26.31 25.29 24.36 23.65 23.26 23.21 23.41 23.77 24.17 24.58 24.98 25.41 25.89 26.42 26.99 27.63 28.36 29.20 30.19 31.35 32.73 34.30 35.98 37.63 39.07 40.20 40.99 41.49 41.79 41.94 41.97 41.86 41.62 41.25 40.79 40.25 39.63 38.99 38.39 37.91 37.57 37.38 37.30 37.28 37.27 37.20 36.96 36.45 35.60 34.42 33.00 31.49 30.02 28.73 27.67 26.85 26.23 25.76 25.37 25.02 24.74 24.59 24.62 24.82 25.15 25.53 25.89 26.22 26.59 27.12 27.90 28.95 30.20 31.54 32.85 34.01 34.94 35.59 35.94 35.99 35.79 35.34 34.67 33.78 32.70 31.45 30.12 28.79 27.57 26.52 25.72 25.16 24.82 24.60 24.43 24.22 23.88 23.37 22.74 22.04 21.35 20.73 20.22 19.86 19.67 19.61 19.63 19.72 19.89 20.22 20.72 21.39 22.18 23.04 23.94 24.89 25.91 27.02 28.19 29.41 30.67 31.95 33.21 34.44 35.59 36.66 37.67 38.62 39.53 40.36 41.10 41.71 42.17 42.47 42.63 42.70 42.70 42.67 42.66 42.69 42.76 42.82 42.78 42.57 42.16 41.54 40.71 39.71 38.59 37.49 36.53 35.81 35.37 35.20 35.21 35.31 35.41 35.46 35.45 35.37 35.17 34.83 34.33 33.72 33.08 32.48 31.95 31.45 30.96 30.47 30.01 29.60 29.21 28.82 28.40 27.94 27.49 27.13 26.92
35.05 34.78 34.33 33.81 33.27 32.74 32.20 31.66 31.15 30.65 30.18 29.72 29.29 28.92 28.63 28.38 28.11 27.72 27.18 26.48 25.65 24.72 23.77 22.92 22.29 22.00 22.04 22.35 22.78 23.21 23.58 23.91 24.27 24.71 25.24 25.87 26.58 27.40 28.33 29.39 30.61 32.03 33.63 35.37 37.11 38.70 40.02 41.03 41.77 42.28 42.63 42.83 42.88 42.75 42.46 42.00 41.41 40.72 39.98 39.28 38.70 38.30 38.06 37.95 37.91 37.88 37.79 37.54 37.04 36.22 35.11 33.80 32.41 31.08 29.91 28.96 28.23 27.68 27.24 26.85 26.49 26.18 25.94 25.82 25.81 25.87 25.96 26.04 26.15 26.36 26.81 27.58 28.68 30.02 31.45 32.85 34.08 35.05 35.70 36.00 35.98 35.66 35.09 34.30 33.32 32.16 30.89 29.56 28.24 27.03 26.01 25.23 24.73 24.46 24.34 24.28 24.17 23.92 23.48 22.87 22.18 21.50 20.90 20.40 20.06 19.88 19.84 19.90 20.01 20.20 20.51 20.97 21.56 22.21 22.88 23.56 24.27 25.06 25.99 27.06 28.27 29.60 31.00 32.41 33.77 35.03 36.19 37.27 38.28 39.24 40.13 40.93 41.60 42.12 42.48 42.70 42.81 42.83 42.80 42.75 42.70 42.64 42.54 42.33 41.97 41.44 40.75 39.95 39.05 38.11 37.23 36.49 35.96 35.68 35.59 35.63 35.69 35.71 35.66 35.51 35.29 34.97 34.53 33.96 33.31 32.64 31.99 31.39 30.82 30.26 29.72 29.23 28.80 28.41 28.02 27.61 27.16 26.71 26.34 26.13
33.57 33.30 32.84 32.31 31.79 31.29 30.81 30.32 29.83 29.34 28.85 28.35 27.86 27.41 27.02 26.68 26.33 25.90 25.35 24.71 23.98 23.20 22.42 21.72 21.24 21.06 21.21 21.60 22.08 22.50 22.82 23.07 23.33 23.69 24.19 24.84 25.63 26.54 27.58 28.75 30.07 31.55 33.21 34.98 36.77 38.45 39.91 41.09 42.00 42.68 43.19 43.53 43.70 43.66 43.40 42.93 42.29 41.53 40.72 39.95 39.31 38.85 38.57 38.43 38.37 38.34 38.24 38.01 37.54 36.80 35.80 34.64 33.43 32.26 31.23 30.38 29.73 29.23 28.82 28.44 28.06 27.70 27.39 27.15 26.96 26.80 26.64 26.48 26.37 26.42 26.75 27.45 28.53 29.88 31.36 32.80 34.06 35.02 35.61 35.82 35.69 35.26 34.58 33.70 32.67 31.52 30.28 29.01 27.76 26.60 25.62 24.89 24.44 24.24 24.23 24.29 24.32 24.20 23.87 23.35 22.73 22.10 21.51 21.02 20.65 20.44 20.38 20.44 20.59 20.83 21.16 21.61 22.13 22.66 23.16 23.60 24.06 24.60 25.29 26.17 27.27 28.56 29.97 31.43 32.85 34.18 35.38 36.49 37.54 38.53 39.46 40.31 41.04 41.64 42.09 42.41 42.62 42.74 42.77 42.74 42.65 42.49 42.25 41.87 41.34 40.68 39.93 39.13 38.32 37.53 36.84 36.30 35.95 35.80 35.79 35.83 35.85 35.79 35.62 35.37 35.03 34.61 34.10 33.51 32.85 32.16 31.48 30.82 30.18 29.56 28.98 28.46 28.01 27.59 27.18 26.77 26.33 25.92 25.57 25.38
32.28 31.99 31.51 30.95 30.40 29.89 29.40 28.93 28.45 27.97 27.48 26.98 26.46 25.95 25.46 25.00 24.54 24.04 23.50 22.93 22.35 21.78 21.22 20.74 20.43 20.39 20.63 21.05 21.52 21.92 22.18 22.34 22.50 22.77 23.22 23.86 24.69 25.70 26.87 28.18 29.63 31.22 32.93 34.74 36.55 38.27 39.80 41.07 42.09 42.89 43.50 43.93 44.17 44.19 43.96 43.47 42.79 41.98 41.13 40.31 39.63 39.12 38.81 38.65 38.59 38.57 38.51 38.31 37.91 37.28 36.45 35.50 34.50 33.51 32.61 31.84 31.24 30.77 30.38 30.00 29.61 29.22 28.84 28.51 28.21 27.89 27.53 27.16 26.85 26.74 26.94 27.54 28.53 29.83 31.27 32.69 33.93 34.83 35.34 35.44 35.20 34.66 33.91 32.99 31.96 30.86 29.71 28.54 27.39 26.32 25.39 24.70 24.28 24.13 24.19 24.37 24.55 24.60 24.45 24.09 23.59 23.05 22.52 22.03 21.62 21.35 21.25 21.30 21.49 21.77 22.15 22.60 23.07 23.49 23.82 24.05 24.26 24.52 24.92 25.55 26.44 27.58 28.91 30.32 31.72 33.04 34.26 35.39 36.45 37.47 38.44 39.35 40.15 40.85 41.41 41.86 42.20 42.44 42.58 42.62 42.55 42.34 41.99 41.47 40.80 40.03 39.20 38.37 37.60 36.91 36.35 35.95 35.74 35.68 35.72 35.75 35.70 35.55 35.29 34.96 34.56 34.10 33.58 33.00 32.37 31.70 31.00 30.29 29.58 28.90 28.29 27.74 27.26 26.80 26.36 25.93 25.51 25.14 24.85 24.68
31.09 30.79 30.28 29.67 29.07 28.50 27.96 27.44 26.94 26.46 26.00 25.53 25.02 24.48 23.93 23.37 22.82 22.27 21.74 21.26 20.84 20.46 20.12 19.85 19.73 19.82 20.10 20.51 20.93 21.26 21.45 21.55 21.64 21.84 22.24 22.87 23.74 24.84 26.13 27.59 29.18 30.89 32.68 34.52 36.35 38.07 39.61 40.90 41.96 42.79 43.44 43.90 44.18 44.22 44.00 43.53 42.85 42.02 41.15 40.31 39.58 39.05 38.71 38.54 38.51 38.53 38.52 38.40 38.11 37.63 37.02 36.32 35.56 34.76 33.97 33.26 32.67 32.22 31.85 31.49 31.11 30.70 30.29 29.91 29.52 29.09 28.58 28.03 27.56 27.30 27.38 27.86 28.73 29.90 31.24 32.58 33.73 34.55 34.96 34.96 34.61 34.00 33.20 32.27 31.28 30.25 29.21 28.16 27.12 26.13 25.26 24.58 24.15 24.01 24.11 24.38 24.70 24.94 25.00 24.86 24.55 24.16 23.72 23.26 22.83 22.52 22.38 22.43 22.63 22.96 23.37 23.82 24.24 24.55 24.72 24.75 24.72 24.70 24.82 25.16 25.79 26.70 27.85 29.13 30.43 31.68 32.87 34.00 35.09 36.14 37.17 38.14 39.05 39.85 40.54 41.12 41.59 41.97 42.23 42.37 42.36 42.16 41.75 41.15 40.38 39.51 38.61 37.74 36.97 36.33 35.85 35.55 35.41 35.40 35.43 35.41 35.29 35.04 34.70 34.31 33.90 33.46 32.99 32.46 31.88 31.24 30.53 29.78 29.01 28.29 27.65 27.07 26.55 26.05 25.57 25.13 24.74 24.42 24.18 24.04
29.95 29.63 29.09 28.43 27.76 27.12 26.50 25.91 25.35 24.86 24.42 24.00 23.54 23.01 22.44 21.85 21.27 20.72 20.24 19.84 19.54 19.30 19.11 19.00 19.00 19.16 19.44 19.79 20.12 20.36 20.49 20.55 20.63 20.83 21.24 21.90 22.83 24.00 25.40 26.97 28.68 30.49 32.34 34.21 36.03 37.73 39.24 40.50 41.52 42.33 42.95 43.39 43.65 43.69 43.50 43.06 42.40 41.60 40.74 39.89 39.15 38.58 38.22 38.07 38.06 38.14 38.22 38.21 38.07 37.80 37.45 37.03 36.54 35.94 35.27 34.60 34.03 33.59 33.24 32.92 32.56 32.17 31.77 31.36 30.92 30.39 29.75 29.06 28.44 28.06 28.02 28.38 29.11 30.13 31.31 32.49 33.50 34.20 34.51 34.43 34.01 33.35 32.52 31.60 30.64 29.67 28.72 27.76 26.82 25.90 25.06 24.37 23.90 23.72 23.82 24.14 24.58 25.01 25.30 25.40 25.33 25.11 24.79 24.42 24.04 23.75 23.62 23.67 23.90 24.25 24.66 25.09 25.44 25.64 25.65 25.48 25.23 24.98 24.85 24.94 25.32 25.99 26.91 27.98 29.11 30.25 31.35 32.44 33.52 34.60 35.68 36.74 37.75 38.68 39.51 40.22 40.82 41.31 41.68 41.92 41.99 41.84 41.45 40.83 40.03 39.11 38.17 37.27 36.49 35.87 35.44 35.19 35.09 35.08 35.08 34.99 34.76 34.42 34.01 33.59 33.18 32.79 32.37 31.90 31.37 30.75 30.04 29.25 28.46 27.71 27.04 26.43 25.88 25.34 24.84 24.41 24.05 23.78 23.58 23.47
28.90 28.57 27.98 27.28 26.55 25.83 25.13 24.44 23.82 23.30 22.88 22.51 22.10 21.62 21.08 20.52 19.98 19.49 19.09 18.79 18.56 18.38 18.23 18.16 18.19 18.34 18.58 18.83 19.05 19.20 19.29 19.35 19.47 19.75 20.26 21.02 22.03 23.27 24.73 26.38 28.15 30.00 31.88 33.75 35.53 37.18 38.61 39.79 40.74 41.47 42.02 42.39 42.59 42.61 42.43 42.04 41.45 40.71 39.88 39.06 38.31 37.73 37.35 37.19 37.22 37.37 37.55 37.67 37.71 37.69 37.63 37.54 37.34 36.98 36.46 35.87 35.33 34.90 34.58 34.30 34.00 33.66 33.29 32.88 32.39 31.77 31.01 30.19 29.45 28.96 28.81 29.04 29.62 30.47 31.45 32.42 33.25 33.81 34.03 33.89 33.44 32.76 31.92 30.99 30.03 29.08 28.15 27.25 26.36 25.48 24.65 23.93 23.41 23.16 23.22 23.56 24.10 24.68 25.19 25.53 25.68 25.67 25.52 25.30 25.05 24.86 24.80 24.89 25.13 25.47 25.86 26.23 26.48 26.54 26.37 26.03 25.59 25.18 24.91 24.84 25.04 25.50 26.18 27.01 27.92 28.86 29.82 30.80 31.82 32.88 33.99 35.12 36.24 37.30 38.26 39.10 39.80 40.39 40.86 41.19 41.34 41.27 40.95 40.39 39.63 38.74 37.81 36.92 36.16 35.57 35.18 34.96 34.87 34.83 34.77 34.60 34.29 33.86 33.39 32.94 32.55 32.18 31.81 31.38 30.87 30.25 29.52 28.72 27.90 27.13 26.44 25.81 25.22 24.67 24.18 23.78 23.47 23.24 23.07 22.98
28.07 27.72 27.09 26.33 25.54 24.75 23.95 23.18 22.49 21.95 21.53 21.19 20.83 20.41 19.95 19.47 19.02 18.64 18.34 18.11 17.91 17.72 17.53 17.40 17.36 17.43 17.57 17.72 17.84 17.92 17.98 18.08 18.31 18.73 19.40 20.31 21.43 22.74 24.23 25.87 27.64 29.46 31.30 33.10 34.79 36.33 37.65 38.72 39.57 40.21 40.66 40.93 41.05 41.01 40.83 40.48 39.97 39.33 38.59 37.82 37.09 36.50 36.11 35.94 35.98 36.18 36.46 36.73 36.97 37.21 37.47 37.72 37.86 37.80 37.50 37.06 36.60 36.21 35.91 35.66 35.41 35.13 34.81 34.42 33.89 33.19 32.32 31.38 30.54 29.94 29.68 29.77 30.18 30.82 31.58 32.33 32.97 33.40 33.55 33.40 32.95 32.26 31.39 30.41 29.40 28.41 27.46 26.56 25.69 24.83 23.99 23.25 22.67 22.36 22.37 22.69 23.26 23.94 24.61 25.16 25.53 25.73 25.80 25.79 25.75 25.73 25.79 25.93 26.18 26.48 26.81 27.08 27.20 27.10 26.76 26.26 25.70 25.22 24.90 24.80 24.90 25.21 25.67 26.25 26.90 27.62 28.37 29.19 30.08 31.07 32.15 33.30 34.49 35.65 36.73 37.68 38.48 39.15 39.68 40.08 40.32 40.35 40.15 39.71 39.06 38.28 37.44 36.63 35.94 35.42 35.08 34.89 34.79 34.70 34.56 34.30 33.91 33.43 32.92 32.46 32.07 31.72 31.36 30.94 30.42 29.79 29.05 28.23 27.38 26.58 25.85 25.18 24.57 24.02 23.56 23.21 22.96 22.77 22.63 22.55
27.61 27.23 26.56 25.74 24.87 23.98 23.10 22.25 21.51 20.93 20.51 20.17 19.84 19.49 19.12 18.75 18.42 18.14 17.92 17.75 17.56 17.32 17.04 16.78 16.60 16.54 16.56 16.61 16.66 16.71 16.80 16.98 17.35 17.95 18.80 19.85 21.07 22.43 23.90 25.50 27.18 28.91 30.62 32.27 33.80 35.15 36.30 37.24 37.97 38.51 38.87 39.04 39.06 38.95 38.74 38.43 38.00 37.47 36.85 36.17 35.50 34.92 34.52 34.34 34.40 34.64 35.00 35.41 35.85 36.35 36.93 37.54 38.05 38.33 38.35 38.14 37.83 37.51 37.24 36.99 36.77 36.54 36.27 35.90 35.35 34.59 33.64 32.63 31.71 31.02 30.63 30.56 30.76 31.17 31.68 32.20 32.68 33.03 33.16 33.02 32.58 31.87 30.94 29.88 28.76 27.67 26.67 25.75 24.89 24.04 23.21 22.44 21.84 21.48 21.43 21.70 22.24 22.94 23.68 24.36 24.92 25.35 25.66 25.90 26.09 26.28 26.48 26.69 26.92 27.17 27.39 27.53 27.50 27.24 26.76 26.15 25.54 25.06 24.78 24.70 24.77 24.96 25.23 25.57 25.99 26.46 27.01 27.63 28.35 29.20 30.19 31.31 32.51 33.74 34.90 35.95 36.83 37.56 38.15 38.61 38.93 39.07 39.01 38.74 38.26 37.64 36.96 36.31 35.77 35.36 35.10 34.94 34.82 34.68 34.45 34.10 33.64 33.12 32.59 32.13 31.74 31.39 31.02 30.59 30.07 29.42 28.66 27.82 26.93 26.07 25.26 24.54 23.89 23.35 22.93 22.64 22.45 22.31 22.19 22.12
27.58 27.19 26.50 25.62 24.65 23.66 22.67 21.74 20.94 20.32 19.87 19.53 19.23 18.94 18.66 18.40 18.17 17.97 17.81 17.65 17.43 17.13 16.75 16.35 16.02 15.80 15.71 15.69 15.71 15.78 15.93 16.23 16.75 17.51 18.51 19.68 20.96 22.32 23.74 25.24 26.79 28.34 29.85 31.27 32.55 33.66 34.59 35.36 35.97 36.42 36.69 36.77 36.70 36.53 36.29 35.99 35.64 35.21 34.71 34.14 33.55 33.02 32.65 32.50 32.59 32.88 33.31 33.84 34.46 35.21 36.09 37.04 37.92 38.59 38.96 39.06 38.96 38.75 38.50 38.25 38.02 37.81 37.57 37.23 36.70 35.92 34.95 33.91 32.96 32.21 31.70 31.45 31.42 31.55 31.80 32.11 32.45 32.74 32.88 32.76 32.32 31.56 30.54 29.36 28.11 26.92 25.86 24.93 24.08 23.26 22.46 21.71 21.11 20.73 20.63 20.82 21.27 21.89 22.61 23.32 24.00 24.60 25.15 25.63 26.07 26.45 26.78 27.06 27.29 27.46 27.56 27.56 27.38 26.98 26.40 25.74 25.14 24.72 24.50 24.44 24.48 24.57 24.68 24.83 25.03 25.30 25.65 26.09 26.63 27.32 28.17 29.21 30.38 31.63 32.85 33.97 34.93 35.72 36.35 36.85 37.24 37.50 37.59 37.50 37.21 36.80 36.33 35.91 35.57 35.34 35.19 35.08 34.94 34.74 34.42 33.99 33.47 32.90 32.35 31.88 31.48 31.12 30.75 30.32 29.80 29.16 28.40 27.52 26.57 25.61 24.71 23.89 23.19 22.64 22.25 22.02 21.88 21.78 21.69 21.64
28.00 27.61 26.90 25.97 24.92 23.81 22.70 21.68 20.81 20.13 19.63 19.27 18.99 18.76 18.57 18.40 18.25 18.10 17.95 17.76 17.50 17.13 16.66 16.14 15.67 15.33 15.14 15.08 15.13 15.26 15.51 15.93 16.58 17.46 18.54 19.76 21.04 22.36 23.70 25.06 26.42 27.74 28.99 30.12 31.10 31.91 32.60 33.19 33.68 34.05 34.24 34.25 34.11 33.88 33.61 33.33 33.02 32.67 32.27 31.82 31.33 30.90 30.62 30.55 30.70 31.05 31.55 32.19 32.98 33.95 35.10 36.35 37.57 38.60 39.33 39.73 39.87 39.79 39.59 39.33 39.07 38.86 38.65 38.35 37.86 37.14 36.23 35.24 34.32 33.55 32.95 32.53 32.25 32.09 32.06 32.15 32.35 32.59 32.72 32.59 32.10 31.27 30.14 28.83 27.47 26.21 25.12 24.20 23.41 22.65 21.92 21.22 20.65 20.27 20.13 20.24 20.55 21.02 21.60 22.24 22.92 23.62 24.33 25.00 25.63 26.18 26.63 26.98 27.21 27.34 27.34 27.21 26.89 26.39 25.76 25.12 24.58 24.22 24.03 23.97 23.95 23.94 23.91 23.90 23.93 24.04 24.23 24.52 24.92 25.46 26.17 27.09 28.19 29.42 30.68 31.85 32.87 33.70 34.37 34.92 35.38 35.75 35.99 36.06 35.98 35.79 35.58 35.43 35.35 35.33 35.32 35.27 35.14 34.89 34.50 34.00 33.41 32.79 32.21 31.71 31.28 30.91 30.54 30.12 29.61 28.99 28.23 27.33 26.32 25.26 24.23 23.30 22.53 21.95 21.57 21.36 21.26 21.20 21.14 21.10
28.74 28.37 27.67 26.72 25.60 24.39 23.17 22.04 21.07 20.31 19.76 19.37 19.09 18.90 18.78 18.68 18.58 18.46 18.28 18.05 17.73 17.30 16.76 16.16 15.60 15.17 14.92 14.86 14.96 15.18 15.54 16.07 16.80 17.74 18.84 20.04 21.29 22.52 23.72 24.90 26.03 27.09 28.04 28.85 29.51 30.05 30.51 30.93 31.31 31.60 31.72 31.66 31.46 31.19 30.89 30.61 30.32 30.03 29.72 29.37 29.01 28.72 28.57 28.61 28.85 29.26 29.84 30.58 31.53 32.71 34.09 35.59 37.07 38.38 39.39 40.06 40.39 40.45 40.30 40.05 39.79 39.57 39.39 39.17 38.79 38.21 37.45 36.60 35.77 35.03 34.38 33.80 33.30 32.86 32.55 32.40 32.44 32.57 32.62 32.42 31.85 30.91 29.67 28.27 26.85 25.55 24.46 23.59 22.88 22.24 21.61 21.02 20.51 20.16 20.00 20.02 20.18 20.46 20.82 21.28 21.85 22.52 23.26 24.02 24.76 25.42 25.99 26.42 26.70 26.83 26.79 26.57 26.16 25.60 24.97 24.37 23.90 23.59 23.41 23.29 23.20 23.08 22.94 22.80 22.71 22.69 22.77 22.95 23.24 23.66 24.25 25.05 26.07 27.25 28.50 29.70 30.74 31.61 32.31 32.92 33.46 33.94 34.31 34.56 34.67 34.72 34.80 34.94 35.14 35.34 35.48 35.51 35.40 35.12 34.69 34.14 33.50 32.84 32.20 31.65 31.18 30.78 30.40 29.98 29.50 28.89 28.14 27.23 26.16 25.01 23.88 22.85 22.00 21.38 20.98 20.77 20.69 20.65 20.63 20.61
29.61 29.26 28.60 27.66 26.52 25.25 23.94 22.70 21.63 20.79 20.18 19.75 19.46 19.29 19.19 19.12 19.05 18.93 18.73 18.46 18.10 17.63 17.06 16.43 15.83 15.36 15.10 15.06 15.21 15.53 15.98 16.58 17.34 18.27 19.32 20.46 21.61 22.72 23.75 24.71 25.58 26.35 27.00 27.53 27.93 28.23 28.52 28.81 29.10 29.30 29.35 29.22 28.95 28.62 28.29 27.99 27.73 27.48 27.24 26.99 26.77 26.63 26.61 26.76 27.09 27.58 28.23 29.09 30.19 31.54 33.10 34.77 36.42 37.89 39.07 39.90 40.38 40.54 40.46 40.24 40.00 39.81 39.70 39.59 39.39 39.04 38.53 37.90 37.23 36.56 35.90 35.22 34.54 33.87 33.29 32.90 32.72 32.67 32.57 32.23 31.53 30.47 29.14 27.67 26.22 24.91 23.85 23.03 22.42 21.92 21.44 20.99 20.59 20.30 20.13 20.08 20.10 20.16 20.27 20.49 20.86 21.39 22.04 22.77 23.51 24.23 24.87 25.40 25.78 25.96 25.95 25.72 25.29 24.74 24.14 23.61 23.19 22.90 22.68 22.49 22.30 22.09 21.87 21.64 21.44 21.32 21.30 21.41 21.62 21.97 22.46 23.16 24.09 25.20 26.41 27.59 28.64 29.52 30.27 30.94 31.57 32.17 32.69 33.10 33.42 33.72 34.07 34.50 34.96 35.38 35.67 35.78 35.70 35.41 34.97 34.39 33.72 33.02 32.34 31.72 31.20 30.76 30.35 29.92 29.42 28.82 28.07 27.15 26.07 24.87 23.67 22.57 21.66 21.00 20.58 20.37 20.29 20.28 20.28 20.28
30.41 30.10 29.48 28.59 27.47 26.19 24.83 23.52 22.37 21.45 20.78 20.31 20.00 19.81 19.69 19.62 19.55 19.43 19.23 18.95 18.58 18.11 17.56 16.96 16.39 15.94 15.70 15.69 15.90 16.28 16.78 17.39 18.12 18.97 19.92 20.94 21.95 22.90 23.73 24.45 25.06 25.56 25.96 26.25 26.47 26.63 26.81 27.01 27.22 27.34 27.30 27.09 26.74 26.34 25.96 25.65 25.39 25.19 25.03 24.89 24.79 24.76 24.85 25.08 25.48 26.03 26.79 27.77 29.00 30.48 32.15 33.89 35.58 37.08 38.30 39.19 39.73 39.96 39.95 39.80 39.62 39.50 39.49 39.55 39.60 39.55 39.37 39.03 38.58 38.02 37.39 36.67 35.88 35.04 34.25 33.62 33.18 32.89 32.57 32.03 31.17 29.99 28.56 27.04 25.57 24.26 23.21 22.45 21.92 21.54 21.22 20.93 20.67 20.47 20.32 20.22 20.10 19.97 19.86 19.83 19.97 20.28 20.75 21.34 22.00 22.69 23.38 24.00 24.49 24.79 24.86 24.70 24.34 23.87 23.36 22.91 22.54 22.24 21.96 21.69 21.41 21.13 20.83 20.52 20.24 20.02 19.92 19.96 20.13 20.42 20.86 21.47 22.31 23.35 24.51 25.65 26.68 27.57 28.36 29.10 29.84 30.57 31.25 31.83 32.35 32.88 33.47 34.13 34.81 35.41 35.83 36.01 35.96 35.69 35.25 34.67 34.00 33.29 32.57 31.91 31.34 30.84 30.38 29.91 29.37 28.73 27.97 27.05 25.98 24.79 23.58 22.45 21.52 20.85 20.43 20.21 20.14 20.13 20.15 20.17
30.99 30.71 30.16 29.34 28.28 27.02 25.67 24.33 23.13 22.16 21.44 20.94 20.60 20.38 20.23 20.14 20.06 19.95 19.78 19.52 19.18 18.78 18.32 17.82 17.34 16.97 16.78 16.82 17.06 17.45 17.94 18.50 19.12 19.82 20.61 21.44 22.28 23.03 23.66 24.16 24.53 24.80 24.99 25.13 25.24 25.34 25.47 25.63 25.77 25.82 25.71 25.42 24.99 24.51 24.07 23.72 23.49 23.34 23.25 23.20 23.20 23.24 23.39 23.66 24.10 24.74 25.59 26.68 28.01 29.55 31.22 32.90 34.50 35.92 37.07 37.92 38.47 38.74 38.80 38.74 38.67 38.67 38.80 39.06 39.39 39.68 39.86 39.86 39.65 39.26 38.70 38.00 37.17 36.25 35.33 34.49 33.80 33.23 32.63 31.87 30.82 29.49 27.97 26.40 24.91 23.60 22.56 21.81 21.31 21.01 20.81 20.65 20.53 20.42 20.32 20.19 19.98 19.71 19.42 19.21 19.13 19.22 19.46 19.85 20.36 20.98 21.66 22.34 22.93 23.35 23.56 23.54 23.34 23.02 22.67 22.33 22.02 21.70 21.36 21.00 20.64 20.29 19.92 19.55 19.17 18.87 18.69 18.67 18.80 19.07 19.47 20.03 20.81 21.78 22.89 24.00 25.01 25.91 26.74 27.56 28.40 29.26 30.07 30.82 31.51 32.20 32.96 33.78 34.60 35.32 35.83 36.09 36.08 35.85 35.43 34.89 34.25 33.56 32.86 32.18 31.56 31.00 30.47 29.92 29.31 28.61 27.82 26.92 25.87 24.72 23.53 22.44 21.53 20.88 20.47 20.26 20.18 20.19 20.23 20.25
31.30 31.05 30.55 29.80 28.81 27.63 26.32 25.01 23.81 22.82 22.08 21.56 21.19 20.94 20.78 20.70 20.65 20.59 20.46 20.26 20.00 19.70 19.38 19.03 18.70 18.44 18.33 18.42 18.68 19.05 19.47 19.91 20.37 20.86 21.42 22.02 22.62 23.17 23.60 23.90 24.09 24.18 24.23 24.26 24.30 24.38 24.49 24.62 24.72 24.74 24.59 24.26 23.77 23.22 22.71 22.34 22.11 22.01 21.99 22.02 22.08 22.17 22.34 22.64 23.13 23.82 24.75 25.91 27.27 28.77 30.33 31.85 33.26 34.51 35.52 36.29 36.79 37.08 37.22 37.27 37.33 37.48 37.78 38.25 38.84 39.45 39.96 40.27 40.31 40.09 39.65 39.04 38.27 37.38 36.41 35.45 34.54 33.69 32.80 31.78 30.52 29.02 27.39 25.76 24.26 22.96 21.93 21.16 20.65 20.33 20.15 20.06 20.03 20.01 19.96 19.83 19.59 19.25 18.88 18.54 18.31 18.20 18.22 18.40 18.74 19.25 19.89 20.59 21.24 21.78 22.13 22.29 22.30 22.21 22.06 21.88 21.64 21.33 20.94 20.51 20.08 19.65 19.21 18.75 18.29 17.90 17.64 17.58 17.70 17.96 18.35 18.90 19.63 20.56 21.62 22.70 23.72 24.64 25.52 26.40 27.32 28.27 29.18 30.04 30.85 31.64 32.48 33.36 34.23 35.01 35.59 35.91 35.96 35.79 35.43 34.96 34.40 33.79 33.14 32.48 31.83 31.21 30.60 29.95 29.25 28.48 27.64 26.73 25.71 24.60 23.48 22.44 21.59 20.99 20.60 20.39 20.31 20.33 20.39 20.44
31.36 31.12 30.65 29.96 29.05 27.97 26.77 25.54 24.39 23.41 22.65 22.11 21.74 21.50 21.38 21.37 21.40 21.43 21.38 21.27 21.11 20.95 20.78 20.60 20.42 20.29 20.27 20.41 20.66 20.98 21.28 21.56 21.82 22.09 22.38 22.71 23.07 23.39 23.65 23.80 23.84 23.81 23.73 23.67 23.65 23.68 23.77 23.88 23.99 24.01 23.87 23.54 23.03 22.44 21.89 21.49 21.27 21.21 21.25 21.35 21.47 21.61 21.81 22.15 22.68 23.42 24.37 25.52 26.81 28.17 29.53 30.82 31.99 33.03 33.89 34.55 35.02 35.32 35.52 35.69 35.90 36.21 36.67 37.32 38.11 38.95 39.71 40.24 40.48 40.42 40.13 39.66 39.04 38.28 37.38 36.38 35.33 34.24 33.08 31.78 30.28 28.60 26.84 25.15 23.63 22.36 21.34 20.55 19.97 19.58 19.33 19.21 19.19 19.21 19.22 19.14 18.93 18.61 18.23 17.85 17.51 17.24 17.09 17.08 17.27 17.66 18.24 18.92 19.62 20.24 20.72 21.07 21.31 21.45 21.53 21.51 21.37 21.09 20.69 20.21 19.72 19.21 18.70 18.15 17.61 17.14 16.82 16.73 16.86 17.15 17.57 18.11 18.82 19.70 20.71 21.77 22.79 23.75 24.67 25.60 26.56 27.54 28.50 29.42 30.28 31.10 31.93 32.79 33.64 34.42 35.04 35.43 35.56 35.46 35.20 34.84 34.41 33.92 33.38 32.78 32.13 31.46 30.76 30.01 29.20 28.34 27.44 26.49 25.47 24.40 23.34 22.38 21.62 21.06 20.69 20.48 20.41 20.46 20.57 20.66
31.22 30.98 30.52 29.87 29.05 28.09 27.03 25.93 24.86 23.92 23.16 22.61 22.25 22.07 22.04 22.15 22.32 22.48 22.55 22.54 22.50 22.46 22.42 22.38 22.33 22.32 22.38 22.55 22.78 23.01 23.18 23.30 23.36 23.41 23.47 23.55 23.67 23.78 23.87 23.89 23.82 23.68 23.51 23.35 23.24 23.20 23.23 23.33 23.44 23.49 23.39 23.09 22.61 22.04 21.49 21.09 20.88 20.87 20.98 21.16 21.35 21.57 21.84 22.24 22.80 23.54 24.45 25.49 26.62 27.77 28.88 29.92 30.86 31.71 32.44 33.02 33.46 33.78 34.06 34.34 34.69 35.15 35.75 36.51 37.40 38.34 39.20 39.84 40.20 40.27 40.13 39.84 39.42 38.86 38.11 37.18 36.07 34.82 33.43 31.86 30.10 28.22 26.33 24.57 23.05 21.79 20.78 19.97 19.32 18.82 18.45 18.24 18.16 18.19 18.24 18.24 18.12 17.89 17.56 17.18 16.79 16.42 16.14 16.01 16.08 16.39 16.89 17.54 18.24 18.90 19.49 19.99 20.40 20.75 21.01 21.14 21.12 20.90 20.53 20.05 19.52 18.95 18.34 17.71 17.09 16.57 16.23 16.15 16.31 16.66 17.13 17.69 18.37 19.17 20.10 21.10 22.12 23.10 24.06 25.01 25.97 26.95 27.92 28.84 29.70 30.50 31.28 32.05 32.83 33.57 34.20 34.64 34.86 34.88 34.74 34.51 34.23 33.91 33.51 33.01 32.41 31.72 30.96 30.11 29.20 28.22 27.22 26.19 25.14 24.09 23.09 22.24 21.57 21.08 20.73 20.52 20.48 20.59 20.78 20.92
30.91 30.66 30.20 29.58 28.86 28.04 27.16 26.22 25.27 24.39 23.66 23.11 22.78 22.66 22.76 23.02 23.35 23.65 23.85 23.95 24.00 24.05 24.11 24.15 24.20 24.26 24.38 24.56 24.75 24.88 24.93 24.89 24.80 24.69 24.57 24.47 24.38 24.32 24.26 24.16 23.99 23.76 23.49 23.22 23.01 22.87 22.84 22.89 22.99 23.06 23.00 22.76 22.35 21.84 21.35 21.00 20.85 20.90 21.09 21.36 21.67 21.99 22.36 22.82 23.40 24.10 24.89 25.76 26.66 27.56 28.42 29.23 29.98 30.69 31.34 31.89 32.33 32.70 33.06 33.46 33.94 34.51 35.19 35.99 36.88 37.78 38.61 39.25 39.66 39.83 39.83 39.71 39.50 39.13 38.56 37.73 36.66 35.34 33.78 31.98 30.00 27.92 25.90 24.07 22.52 21.26 20.25 19.42 18.73 18.13 17.65 17.32 17.17 17.17 17.25 17.32 17.31 17.18 16.95 16.62 16.22 15.79 15.44 15.24 15.26 15.51 15.97 16.56 17.22 17.88 18.51 19.09 19.61 20.06 20.44 20.69 20.76 20.64 20.35 19.91 19.38 18.76 18.08 17.37 16.70 16.17 15.85 15.81 16.04 16.46 16.99 17.57 18.20 18.90 19.70 20.60 21.56 22.53 23.49 24.45 25.41 26.37 27.32 28.22 29.05 29.80 30.49 31.14 31.81 32.49 33.11 33.61 33.92 34.06 34.07 33.99 33.87 33.70 33.45 33.09 32.57 31.92 31.13 30.21 29.18 28.07 26.93 25.80 24.70 23.68 22.78 22.05 21.49 21.08 20.78 20.60 20.60 20.79 21.06 21.26
30.43 30.18 29.73 29.16 28.54 27.89 27.20 26.45 25.66 24.88 24.19 23.67 23.36 23.32 23.51 23.90 24.36 24.78 25.08 25.27 25.40 25.49 25.59 25.68 25.78 25.90 26.06 26.23 26.37 26.41 26.35 26.20 26.00 25.78 25.55 25.32 25.10 24.90 24.70 24.49 24.22 23.90 23.55 23.20 22.89 22.66 22.55 22.55 22.62 22.67 22.64 22.47 22.16 21.77 21.40 21.15 21.08 21.21 21.50 21.87 22.28 22.72 23.19 23.71 24.28 24.89 25.52 26.17 26.83 27.49 28.14 28.77 29.40 30.03 30.65 31.21 31.71 32.16 32.62 33.14 33.72 34.36 35.06 35.82 36.61 37.40 38.13 38.72 39.14 39.38 39.49 39.51 39.43 39.20 38.76 38.05 37.04 35.71 34.06 32.11 29.96 27.73 25.61 23.72 22.13 20.85 19.82 18.98 18.26 17.61 17.07 16.66 16.44 16.39 16.46 16.56 16.62 16.59 16.45 16.18 15.80 15.38 15.01 14.81 14.82 15.06 15.47 16.00 16.58 17.18 17.77 18.34 18.88 19.36 19.78 20.09 20.25 20.24 20.05 19.70 19.20 18.56 17.83 17.07 16.40 15.90 15.65 15.68 15.98 16.48 17.07 17.66 18.23 18.81 19.47 20.22 21.06 21.95 22.87 23.81 24.75 25.69 26.60 27.47 28.26 28.95 29.55 30.09 30.65 31.24 31.83 32.36 32.78 33.05 33.21 33.29 33.31 33.27 33.16 32.91 32.51 31.92 31.15 30.19 29.06 27.82 26.54 25.31 24.20 23.24 22.47 21.90 21.48 21.17 20.93 20.80 20.87 21.13 21.48 21.73
29.80 29.55 29.13 28.63 28.14 27.67 27.19 26.65 26.04 25.40 24.79 24.31 24.05 24.04 24.30 24.75 25.28 25.76 26.11 26.34 26.49 26.61 26.73 26.85 26.99 27.15 27.33 27.50 27.59 27.57 27.42 27.19 26.90 26.60 26.29 25.97 25.65 25.34 25.04 24.72 24.38 23.99 23.58 23.17 22.81 22.53 22.37 22.31 22.34 22.37 22.36 22.25 22.07 21.84 21.64 21.52 21.56 21.77 22.13 22.58 23.07 23.59 24.13 24.67 25.21 25.71 26.17 26.61 27.04 27.50 27.99 28.51 29.09 29.71 30.35 30.98 31.57 32.13 32.71 33.32 33.97 34.64 35.31 35.97 36.63 37.28 37.90 38.45 38.87 39.16 39.34 39.41 39.39 39.23 38.85 38.20 37.23 35.91 34.23 32.22 29.98 27.68 25.50 23.58 21.97 20.66 19.62 18.76 18.02 17.36 16.80 16.37 16.12 16.03 16.06 16.13 16.19 16.19 16.09 15.88 15.55 15.17 14.84 14.68 14.74 14.99 15.38 15.83 16.29 16.76 17.24 17.72 18.19 18.64 19.05 19.38 19.61 19.71 19.63 19.37 18.91 18.28 17.53 16.78 16.15 15.74 15.59 15.72 16.09 16.64 17.27 17.87 18.40 18.87 19.38 19.96 20.62 21.37 22.18 23.04 23.93 24.82 25.69 26.51 27.26 27.90 28.43 28.90 29.37 29.89 30.44 30.99 31.49 31.89 32.20 32.44 32.59 32.66 32.63 32.46 32.14 31.62 30.88 29.91 28.72 27.38 26.02 24.75 23.68 22.84 22.25 21.87 21.61 21.41 21.24 21.18 21.31 21.63 22.02 22.29
29.07 28.85 28.47 28.07 27.71 27.43 27.17 26.86 26.45 25.97 25.48 25.07 24.84 24.86 25.12 25.56 26.07 26.54 26.88 27.10 27.25 27.39 27.54 27.71 27.89 28.09 28.29 28.44 28.50 28.43 28.23 27.93 27.57 27.17 26.76 26.33 25.91 25.51 25.12 24.73 24.33 23.91 23.49 23.08 22.72 22.45 22.28 22.22 22.22 22.25 22.25 22.23 22.18 22.14 22.11 22.14 22.28 22.55 22.94 23.43 23.96 24.52 25.08 25.61 26.07 26.45 26.74 26.98 27.23 27.53 27.93 28.42 29.02 29.70 30.42 31.15 31.85 32.53 33.19 33.86 34.53 35.18 35.78 36.34 36.87 37.42 37.97 38.50 38.93 39.24 39.43 39.50 39.47 39.28 38.89 38.24 37.28 35.97 34.30 32.29 30.07 27.78 25.61 23.70 22.09 20.78 19.71 18.83 18.08 17.43 16.89 16.49 16.24 16.12 16.09 16.08 16.07 16.03 15.93 15.74 15.47 15.16 14.91 14.83 14.94 15.23 15.60 15.97 16.31 16.61 16.91 17.23 17.59 17.96 18.32 18.66 18.94 19.11 19.13 18.94 18.52 17.91 17.19 16.50 15.97 15.67 15.64 15.84 16.27 16.86 17.52 18.14 18.65 19.06 19.44 19.84 20.31 20.85 21.48 22.20 22.97 23.76 24.54 25.30 26.00 26.62 27.14 27.60 28.05 28.54 29.06 29.62 30.16 30.67 31.13 31.51 31.78 31.93 31.94 31.79 31.49 30.99 30.26 29.29 28.09 26.74 25.39 24.17 23.22 22.57 22.19 22.00 21.90 21.80 21.70 21.70 21.88 22.23 22.64 22.91
28.33 28.14 27.85 27.55 27.35 27.24 27.19 27.09 26.90 26.60 26.25 25.93 25.75 25.76 25.99 26.37 26.80 27.18 27.45 27.64 27.79 27.96 28.17 28.41 28.66 28.88 29.07 29.20 29.22 29.10 28.86 28.50 28.06 27.54 26.98 26.41 25.85 25.34 24.88 24.46 24.05 23.65 23.27 22.94 22.66 22.46 22.35 22.33 22.36 22.41 22.47 22.53 22.63 22.75 22.88 23.05 23.26 23.55 23.95 24.42 24.95 25.50 26.03 26.50 26.87 27.11 27.25 27.33 27.43 27.63 27.99 28.52 29.20 29.99 30.83 31.68 32.48 33.23 33.94 34.60 35.24 35.83 36.36 36.83 37.30 37.79 38.31 38.81 39.24 39.53 39.68 39.70 39.60 39.35 38.91 38.21 37.23 35.92 34.28 32.34 30.19 28.00 25.92 24.07 22.49 21.18 20.10 19.19 18.42 17.79 17.29 16.95 16.73 16.60 16.51 16.41 16.30 16.17 16.02 15.84 15.61 15.39 15.24 15.24 15.42 15.73 16.09 16.40 16.62 16.75 16.86 16.99 17.18 17.44 17.73 18.03 18.32 18.53 18.60 18.45 18.08 17.50 16.85 16.25 15.84 15.67 15.73 15.99 16.44 17.05 17.74 18.40 18.95 19.35 19.66 19.91 20.17 20.48 20.88 21.38 21.95 22.57 23.21 23.88 24.53 25.16 25.74 26.26 26.77 27.28 27.81 28.37 28.95 29.53 30.09 30.58 30.96 31.16 31.18 31.01 30.66 30.11 29.36 28.40 27.24 25.96 24.71 23.64 22.88 22.45 22.29 22.29 22.32 22.30 22.27 22.31 22.51 22.87 23.26 23.52
27.69 27.55 27.35 27.18 27.11 27.16 27.29 27.38 27.39 27.27 27.07 26.87 26.74 26.75 26.92 27.20 27.51 27.78 27.97 28.11 28.27 28.49 28.79 29.11 29.41 29.65 29.81 29.88 29.85 29.68 29.39 28.96 28.42 27.77 27.03 26.27 25.56 24.93 24.41 23.97 23.60 23.28 23.03 22.83 22.71 22.65 22.66 22.74 22.84 22.96 23.09 23.25 23.47 23.72 23.98 24.23 24.48 24.77 25.14 25.58 26.07 26.57 27.03 27.40 27.65 27.76 27.78 27.74 27.75 27.90 28.25 28.83 29.61 30.52 31.49 32.45 33.33 34.11 34.80 35.41 35.97 36.48 36.95 37.39 37.84 38.31 38.81 39.28 39.65 39.87 39.94 39.88 39.69 39.36 38.85 38.10 37.08 35.78 34.19 32.35 30.34 28.30 26.35 24.59 23.07 21.78 20.68 19.75 18.97 18.35 17.91 17.62 17.44 17.31 17.18 17.01 16.80 16.59 16.39 16.20 16.04 15.91 15.86 15.93 16.15 16.47 16.81 17.07 17.20 17.21 17.15 17.10 17.12 17.21 17.38 17.61 17.85 18.05 18.12 17.99 17.65 17.12 16.55 16.05 15.76 15.68 15.80 16.09 16.55 17.18 17.91 18.64 19.26 19.72 20.01 20.17 20.27 20.35 20.49 20.71 21.02 21.41 21.88 22.43 23.05 23.71 24.37 25.00 25.61 26.19 26.76 27.35 27.96 28.58 29.19 29.74 30.17 30.41 30.43 30.21 29.78 29.16 28.36 27.40 26.30 25.16 24.09 23.23 22.69 22.48 22.53 22.68 22.81 22.86 22.87 22.92 23.11 23.44 23.80 24.03
27.29 27.21 27.09 27.03 27.08 27.25 27.51 27.77 27.95 28.00 27.95 27.85 27.77 27.78 27.89 28.07 28.28 28.45 28.57 28.68 28.86 29.15 29.52 29.90 30.22 30.44 30.55 30.56 30.45 30.22 29.85 29.34 28.69 27.90 27.00 26.07 25.20 24.46 23.88 23.45 23.15 22.96 22.87 22.87 22.94 23.07 23.25 23.46 23.67 23.88 24.10 24.37 24.69 25.03 25.36 25.63 25.87 26.12 26.45 26.84 27.28 27.71 28.06 28.31 28.43 28.44 28.37 28.28 28.26 28.40 28.77 29.39 30.23 31.24 32.30 33.33 34.25 35.03 35.66 36.18 36.65 37.09 37.52 37.96 38.42 38.90 39.36 39.76 40.02 40.13 40.09 39.92 39.65 39.25 38.67 37.89 36.86 35.58 34.06 32.34 30.49 28.63 26.84 25.19 23.74 22.47 21.37 20.42 19.63 19.03 18.63 18.39 18.24 18.10 17.94 17.71 17.44 17.16 16.94 16.79 16.71 16.70 16.75 16.89 17.12 17.42 17.71 17.92 18.00 17.94 17.79 17.60 17.45 17.38 17.39 17.48 17.61 17.74 17.77 17.63 17.30 16.84 16.35 15.95 15.75 15.74 15.89 16.18 16.64 17.29 18.07 18.88 19.59 20.13 20.47 20.62 20.61 20.52 20.41 20.34 20.36 20.50 20.78 21.21 21.79 22.48 23.21 23.93 24.62 25.27 25.90 26.53 27.17 27.81 28.43 28.99 29.42 29.67 29.68 29.44 28.96 28.29 27.46 26.50 25.48 24.47 23.59 22.96 22.64 22.63 22.83 23.09 23.30 23.38 23.40 23.43 23.58 23.84 24.12 24.31
27.24 27.20 27.15 27.18 27.31 27.58 27.94 28.31 28.63 28.82 28.89 28.87 28.82 28.81 28.87 28.99 29.13 29.25 29.35 29.46 29.66 29.98 30.38 30.76 31.07 31.24 31.30 31.24 31.07 30.76 30.31 29.70 28.95 28.04 27.02 25.96 24.97 24.14 23.51 23.09 22.86 22.81 22.90 23.11 23.39 23.73 24.08 24.43 24.76 25.07 25.40 25.77 26.17 26.57 26.89 27.12 27.30 27.49 27.75 28.08 28.46 28.80 29.06 29.19 29.20 29.13 29.03 28.95 28.97 29.14 29.53 30.17 31.03 32.05 33.15 34.21 35.15 35.90 36.47 36.90 37.26 37.62 38.02 38.46 38.94 39.42 39.83 40.12 40.25 40.22 40.06 39.80 39.46 39.02 38.42 37.62 36.60 35.36 33.92 32.32 30.64 28.94 27.31 25.79 24.42 23.19 22.10 21.15 20.37 19.80 19.43 19.20 19.04 18.88 18.66 18.38 18.05 17.75 17.55 17.47 17.51 17.63 17.80 18.01 18.24 18.50 18.73 18.89 18.94 18.87 18.68 18.44 18.18 17.96 17.80 17.71 17.69 17.69 17.63 17.45 17.13 16.73 16.33 16.04 15.91 15.94 16.10 16.39 16.85 17.51 18.33 19.19 19.98 20.60 21.02 21.22 21.20 21.02 20.72 20.41 20.16 20.06 20.15 20.46 20.98 21.64 22.37 23.10 23.79 24.45 25.10 25.76 26.43 27.09 27.71 28.26 28.67 28.91 28.93 28.71 28.25 27.59 26.77 25.84 24.88 23.98 23.26 22.81 22.66 22.79 23.08 23.40 23.63 23.73 23.73 23.72 23.78 23.95 24.15 24.29
27.57 27.56 27.58 27.66 27.86 28.19 28.62 29.09 29.50 29.79 29.93 29.95 29.89 29.85 29.87 29.97 30.10 30.23 30.34 30.48 30.69 30.99 31.35 31.67 31.91 32.02 32.03 31.92 31.70 31.34 30.81 30.13 29.29 28.31 27.22 26.10 25.04 24.14 23.46 23.03 22.85 22.90 23.14 23.52 24.00 24.52 25.04 25.52 25.96 26.39 26.83 27.30 27.76 28.16 28.42 28.56 28.63 28.72 28.89 29.14 29.44 29.71 29.89 29.94 29.89 29.79 29.72 29.72 29.82 30.07 30.50 31.13 31.95 32.94 34.00 35.04 35.96 36.68 37.19 37.53 37.81 38.09 38.43 38.86 39.32 39.75 40.09 40.27 40.28 40.13 39.88 39.55 39.18 38.72 38.13 37.35 36.36 35.17 33.80 32.32 30.78 29.25 27.77 26.38 25.09 23.92 22.86 21.94 21.20 20.66 20.30 20.06 19.85 19.62 19.32 18.96 18.58 18.27 18.10 18.11 18.28 18.54 18.83 19.11 19.36 19.58 19.76 19.88 19.92 19.87 19.72 19.48 19.19 18.88 18.58 18.33 18.13 17.97 17.79 17.55 17.24 16.91 16.62 16.44 16.38 16.44 16.60 16.88 17.34 17.99 18.81 19.67 20.48 21.15 21.64 21.92 21.97 21.78 21.40 20.93 20.49 20.19 20.11 20.27 20.66 21.22 21.84 22.47 23.07 23.67 24.28 24.94 25.63 26.31 26.95 27.49 27.89 28.13 28.17 28.01 27.63 27.05 26.28 25.39 24.48 23.66 23.05 22.71 22.68 22.87 23.19 23.51 23.72 23.78 23.74 23.67 23.66 23.73 23.86 23.96
