7.93 7.91 7.88 7.83 7.76 7.68 7.59 7.49 7.39 7.29 7.18 7.09 6.99 6.91 6.85 6.80 6.76 6.74 6.71 6.68 6.65 6.62 6.60 6.61 6.64 6.71 6.81 6.92 7.04 7.15 7.26 7.35 7.42 7.48 7.52 7.55 7.57 7.60 7.64 7.69 7.76 7.83 7.88 7.92 7.93 7.93 7.91 7.90 7.90 7.91 7.92 7.93 7.94 7.95 7.94 7.93 7.91 7.88 7.84 7.79 7.74 7.68 7.62 7.56 7.50 7.45 7.40 7.37 7.33 7.30 7.28 7.26 7.25 7.25 7.24 7.22 7.18 7.12 7.05 6.98 6.92 6.88 6.83 6.78 6.72 6.66 6.59 6.54 6.50 6.46 6.44 6.44 6.45 6.49 6.54 6.61 6.68 6.75 6.80 6.83
7.96 7.94 7.91 7.85 7.79 7.71 7.61 7.51 7.40 7.29 7.19 7.09 7.00 6.92 6.85 6.80 6.77 6.74 6.71 6.69 6.65 6.62 6.60 6.61 6.64 6.71 6.81 6.92 7.03 7.14 7.24 7.33 7.40 7.45 7.49 7.52 7.55 7.58 7.62 7.67 7.74 7.81 7.87 7.91 7.93 7.93 7.92 7.92 7.91 7.92 7.93 7.94 7.95 7.95 7.95 7.94 7.92 7.89 7.84 7.79 7.72 7.66 7.59 7.53 7.47 7.41 7.37 7.33 7.30 7.27 7.25 7.23 7.22 7.21 7.20 7.18 7.14 7.08 7.02 6.95 6.90 6.85 6.81 6.76 6.71 6.64 6.58 6.53 6.49 6.46 6.44 6.43 6.45 6.48 6.53 6.59 6.66 6.72 6.77 6.80
8.01 7.99 7.95 7.90 7.83 7.74 7.64 7.53 7.42 7.31 7.20 7.10 7.00 6.92 6.85 6.81 6.77 6.75 6.72 6.69 6.66 6.63 6.61 6.61 6.64 6.71 6.79 6.90 7.01 7.11 7.21 7.29 7.36 7.41 7.44 7.47 7.50 7.53 7.58 7.63 7.70 7.78 7.85 7.90 7.93 7.95 7.95 7.94 7.94 7.94 7.95 7.95 7.96 7.96 7.96 7.95 7.93 7.89 7.84 7.77 7.70 7.63 7.55 7.48 7.42 7.36 7.32 7.28 7.24 7.22 7.19 7.18 7.17 7.16 7.15 7.12 7.08 7.02 6.96 6.91 6.86 6.82 6.78 6.73 6.68 6.62 6.56 6.52 6.48 6.46 6.44 6.43 6.44 6.46 6.50 6.56 6.62 6.68 6.72 6.75
8.06 8.04 8.01 7.95 7.87 7.78 7.68 7.56 7.45 7.33 7.21 7.10 7.01 6.92 6.86 6.81 6.78 6.75 6.73 6.70 6.67 6.64 6.62 6.62 6.65 6.70 6.78 6.88 6.98 7.08 7.17 7.24 7.30 7.35 7.38 7.41 7.44 7.48 7.53 7.59 7.66 7.74 7.82 7.88 7.93 7.95 7.97 7.97 7.97 7.98 7.98 7.98 7.98 7.98 7.97 7.96 7.94 7.90 7.84 7.76 7.68 7.60 7.52 7.44 7.37 7.31 7.26 7.22 7.18 7.16 7.13 7.12 7.11 7.09 7.08 7.05 7.01 6.96 6.91 6.86 6.81 6.77 6.74 6.69 6.64 6.58 6.53 6.49 6.47 6.45 6.43 6.42 6.43 6.45 6.48 6.53 6.58 6.63 6.67 6.70
8.10 8.09 8.05 8.00 7.92 7.82 7.71 7.59 7.47 7.35 7.23 7.12 7.02 6.94 6.87 6.83 6.79 6.77 6.75 6.73 6.70 6.67 6.64 6.64 6.66 6.71 6.78 6.86 6.96 7.05 7.13 7.19 7.25 7.28 7.32 7.35 7.38 7.42 7.48 7.54 7.62 7.70 7.78 7.86 7.92 7.96 7.98 8.00 8.01 8.01 8.01 8.01 8.01 8.00 8.00 7.98 7.95 7.90 7.84 7.76 7.67 7.58 7.49 7.40 7.33 7.26 7.21 7.17 7.13 7.10 7.08 7.06 7.05 7.03 7.02 6.99 6.95 6.91 6.86 6.81 6.77 6.73 6.70 6.65 6.60 6.54 6.50 6.47 6.45 6.44 6.43 6.42 6.42 6.44 6.46 6.50 6.54 6.59 6.62 6.65
8.14 8.12 8.09 8.03 7.96 7.86 7.75 7.62 7.50 7.37 7.25 7.14 7.05 6.97 6.90 6.86 6.83 6.80 6.78 6.76 6.73 6.70 6.68 6.67 6.68 6.72 6.78 6.86 6.94 7.02 7.09 7.15 7.19 7.23 7.25 7.29 7.33 7.37 7.43 7.50 7.58 7.66 7.75 7.83 7.90 7.96 8.00 8.03 8.05 8.06 8.06 8.05 8.05 8.04 8.02 8.00 7.96 7.91 7.84 7.75 7.66 7.57 7.47 7.38 7.30 7.23 7.17 7.12 7.09 7.06 7.03 7.01 7.00 6.98 6.97 6.94 6.91 6.86 6.82 6.77 6.73 6.69 6.65 6.61 6.56 6.51 6.47 6.45 6.44 6.43 6.43 6.43 6.43 6.43 6.45 6.48 6.51 6.55 6.59 6.61
8.17 8.16 8.12 8.07 7.99 7.89 7.78 7.65 7.53 7.40 7.29 7.18 7.09 7.01 6.95 6.91 6.88 6.86 6.84 6.81 6.79 6.76 6.73 6.72 6.73 6.76 6.81 6.87 6.93 7.00 7.06 7.11 7.15 7.17 7.20 7.23 7.27 7.33 7.40 7.48 7.56 7.65 7.74 7.82 7.90 7.97 8.02 8.06 8.09 8.10 8.11 8.10 8.09 8.08 8.05 8.02 7.97 7.90 7.83 7.74 7.65 7.55 7.45 7.36 7.27 7.19 7.13 7.09 7.05 7.02 7.00 6.98 6.96 6.95 6.93 6.91 6.88 6.84 6.79 6.74 6.70 6.65 6.61 6.56 6.52 6.47 6.44 6.43 6.43 6.43 6.43 6.43 6.43 6.43 6.44 6.46 6.49 6.52 6.55 6.57
8.21 8.19 8.16 8.11 8.03 7.93 7.82 7.69 7.57 7.45 7.34 7.24 7.15 7.08 7.03 6.99 6.96 6.94 6.91 6.89 6.86 6.83 6.81 6.79 6.80 6.82 6.85 6.89 6.95 7.00 7.05 7.08 7.11 7.13 7.15 7.18 7.23 7.30 7.37 7.46 7.55 7.65 7.74 7.83 7.91 7.98 8.05 8.10 8.13 8.15 8.16 8.15 8.13 8.11 8.07 8.03 7.97 7.89 7.81 7.72 7.62 7.52 7.42 7.32 7.23 7.16 7.10 7.05 7.02 6.99 6.97 6.96 6.94 6.93 6.91 6.89 6.86 6.82 6.77 6.72 6.67 6.62 6.57 6.53 6.48 6.45 6.42 6.41 6.42 6.43 6.43 6.43 6.43 6.42 6.43 6.44 6.47 6.50 6.53 6.55
8.25 8.23 8.20 8.15 8.07 7.98 7.86 7.74 7.62 7.50 7.40 7.31 7.23 7.17 7.12 7.08 7.05 7.03 7.01 6.98 6.96 6.93 6.90 6.89 6.89 6.89 6.91 6.94 6.97 7.01 7.04 7.06 7.08 7.09 7.11 7.14 7.19 7.27 7.36 7.46 7.56 7.66 7.75 7.84 7.93 8.01 8.07 8.13 8.17 8.19 8.19 8.18 8.16 8.12 8.08 8.02 7.95 7.87 7.78 7.68 7.58 7.48 7.38 7.28 7.19 7.12 7.06 7.01 6.98 6.96 6.95 6.93 6.92 6.91 6.90 6.88 6.85 6.81 6.76 6.70 6.64 6.59 6.54 6.50 6.46 6.43 6.41 6.40 6.41 6.43 6.43 6.43 6.43 6.42 6.42 6.43 6.46 6.49 6.52 6.53
8.29 8.27 8.24 8.19 8.12 8.02 7.91 7.80 7.68 7.57 7.47 7.39 7.32 7.26 7.22 7.19 7.16 7.14 7.12 7.09 7.06 7.04 7.01 7.00 6.99 6.99 6.99 7.00 7.02 7.03 7.05 7.06 7.06 7.07 7.08 7.11 7.16 7.24 7.34 7.45 7.56 7.67 7.77 7.87 7.95 8.03 8.10 8.15 8.18 8.20 8.20 8.18 8.15 8.11 8.06 7.99 7.92 7.83 7.73 7.63 7.53 7.43 7.33 7.23 7.15 7.07 7.01 6.97 6.94 6.93 6.92 6.91 6.91 6.90 6.90 6.88 6.85 6.81 6.75 6.69 6.63 6.58 6.53 6.49 6.45 6.42 6.40 6.40 6.41 6.43 6.44 6.44 6.43 6.43 6.43 6.44 6.46 6.50 6.52 6.54
8.33 8.32 8.28 8.23 8.16 8.07 7.97 7.86 7.75 7.65 7.55 7.48 7.41 7.36 7.33 7.30 7.28 7.26 7.23 7.20 7.18 7.15 7.13 7.11 7.10 7.09 7.08 7.08 7.07 7.07 7.07 7.06 7.06 7.06 7.06 7.09 7.14 7.22 7.32 7.44 7.56 7.68 7.78 7.88 7.97 8.05 8.11 8.15 8.18 8.19 8.18 8.16 8.12 8.07 8.01 7.95 7.87 7.78 7.68 7.58 7.48 7.38 7.28 7.19 7.10 7.03 6.97 6.93 6.90 6.89 6.89 6.89 6.90 6.90 6.90 6.89 6.87 6.83 6.77 6.70 6.64 6.59 6.54 6.50 6.46 6.43 6.42 6.41 6.42 6.43 6.44 6.45 6.45 6.45 6.45 6.47 6.49 6.53 6.56 6.57
8.37 8.35 8.32 8.27 8.20 8.11 8.02 7.92 7.82 7.73 7.64 7.57 7.51 7.47 7.44 7.42 7.39 7.37 7.34 7.32 7.29 7.26 7.24 7.22 7.20 7.19 7.17 7.16 7.14 7.12 7.11 7.09 7.07 7.06 7.06 7.08 7.13 7.20 7.30 7.42 7.54 7.67 7.78 7.88 7.98 8.05 8.11 8.14 8.16 8.16 8.14 8.11 8.07 8.02 7.96 7.89 7.81 7.72 7.63 7.53 7.43 7.34 7.24 7.15 7.07 7.00 6.94 6.90 6.87 6.87 6.87 6.89 6.90 6.91 6.92 6.92 6.90 6.86 6.81 6.74 6.68 6.63 6.58 6.54 6.51 6.48 6.45 6.44 6.44 6.45 6.46 6.47 6.48 6.49 6.50 6.52 6.55 6.58 6.61 6.63
8.40 8.38 8.35 8.30 8.23 8.15 8.07 7.98 7.89 7.81 7.74 7.67 7.62 7.58 7.55 7.53 7.50 7.48 7.45 7.43 7.40 7.37 7.34 7.31 7.29 7.28 7.26 7.24 7.21 7.19 7.16 7.13 7.10 7.08 7.08 7.09 7.13 7.19 7.29 7.40 7.52 7.65 7.76 7.87 7.97 8.04 8.09 8.12 8.13 8.12 8.10 8.06 8.02 7.96 7.89 7.82 7.74 7.66 7.57 7.49 7.40 7.31 7.22 7.13 7.05 6.98 6.92 6.88 6.86 6.86 6.87 6.89 6.91 6.93 6.95 6.96 6.95 6.91 6.86 6.81 6.75 6.70 6.66 6.62 6.58 6.55 6.52 6.49 6.49 6.49 6.50 6.52 6.53 6.55 6.57 6.59 6.62 6.65 6.68 6.70
8.41 8.40 8.36 8.31 8.25 8.18 8.11 8.04 7.97 7.90 7.83 7.77 7.72 7.68 7.65 7.63 7.60 7.58 7.56 7.53 7.49 7.46 7.43 7.40 7.38 7.36 7.34 7.32 7.29 7.26 7.22 7.18 7.14 7.11 7.10 7.11 7.14 7.20 7.28 7.38 7.50 7.62 7.74 7.85 7.95 8.03 8.07 8.10 8.10 8.08 8.05 8.01 7.96 7.90 7.83 7.76 7.68 7.60 7.53 7.45 7.37 7.29 7.21 7.13 7.05 6.98 6.92 6.89 6.87 6.87 6.88 6.90 6.93 6.95 6.98 7.00 7.00 6.98 6.94 6.89 6.84 6.80 6.76 6.73 6.69 6.65 6.61 6.58 6.56 6.55 6.56 6.58 6.60 6.63 6.65 6.68 6.71 6.74 6.77 6.79
8.42 8.40 8.37 8.32 8.27 8.21 8.15 8.10 8.04 7.98 7.92 7.87 7.81 7.77 7.74 7.72 7.70 7.67 7.65 7.62 7.58 7.55 7.51 7.48 7.45 7.44 7.42 7.40 7.37 7.33 7.28 7.23 7.18 7.15 7.13 7.14 7.16 7.21 7.29 7.38 7.49 7.60 7.72 7.83 7.93 8.01 8.05 8.07 8.07 8.05 8.01 7.97 7.92 7.85 7.78 7.70 7.63 7.56 7.49 7.42 7.36 7.29 7.21 7.14 7.06 7.00 6.94 6.90 6.88 6.88 6.89 6.91 6.94 6.97 7.01 7.03 7.05 7.04 7.01 6.98 6.95 6.91 6.88 6.85 6.81 6.77 6.72 6.68 6.65 6.64 6.64 6.66 6.68 6.71 6.74 6.77 6.80 6.84 6.87 6.88
8.42 8.41 8.37 8.33 8.29 8.24 8.20 8.16 8.12 8.07 8.02 7.96 7.90 7.86 7.82 7.80 7.78 7.76 7.74 7.71 7.68 7.64 7.60 7.56 7.54 7.52 7.50 7.48 7.45 7.40 7.35 7.29 7.24 7.20 7.18 7.18 7.20 7.25 7.31 7.39 7.49 7.60 7.71 7.81 7.91 7.99 8.03 8.05 8.04 8.02 7.98 7.93 7.87 7.80 7.73 7.66 7.59 7.52 7.46 7.40 7.34 7.28 7.21 7.14 7.08 7.01 6.96 6.92 6.90 6.89 6.89 6.91 6.94 6.98 7.02 7.06 7.08 7.09 7.08 7.06 7.04 7.02 6.99 6.96 6.93 6.88 6.83 6.79 6.75 6.73 6.73 6.75 6.77 6.81 6.84 6.87 6.90 6.94 6.96 6.98
8.42 8.40 8.38 8.34 8.31 8.28 8.25 8.23 8.20 8.16 8.11 8.05 7.99 7.93 7.89 7.87 7.85 7.84 7.83 7.80 7.77 7.73 7.69 7.66 7.63 7.61 7.59 7.57 7.53 7.48 7.42 7.35 7.30 7.25 7.23 7.23 7.25 7.29 7.35 7.43 7.51 7.61 7.71 7.81 7.90 7.97 8.01 8.02 8.01 7.98 7.94 7.89 7.83 7.76 7.69 7.62 7.56 7.50 7.44 7.38 7.33 7.27 7.21 7.15 7.08 7.02 6.97 6.92 6.89 6.88 6.88 6.89 6.92 6.97 7.02 7.06 7.09 7.12 7.12 7.12 7.11 7.10 7.08 7.05 7.02 6.97 6.93 6.88 6.85 6.83 6.83 6.84 6.87 6.90 6.93 6.97 7.00 7.04 7.06 7.08
8.40 8.39 8.37 8.35 8.33 8.31 8.30 8.30 8.28 8.25 8.20 8.13 8.07 8.01 7.97 7.94 7.93 7.92 7.91 7.89 7.87 7.83 7.80 7.76 7.74 7.71 7.69 7.66 7.62 7.56 7.49 7.42 7.36 7.32 7.29 7.29 7.31 7.35 7.40 7.47 7.55 7.64 7.73 7.81 7.88 7.94 7.98 7.99 7.97 7.94 7.90 7.84 7.78 7.71 7.65 7.59 7.53 7.47 7.42 7.36 7.31 7.25 7.19 7.13 7.07 7.01 6.95 6.90 6.87 6.84 6.84 6.85 6.88 6.93 6.98 7.04 7.08 7.12 7.14 7.15 7.15 7.14 7.13 7.11 7.08 7.04 7.00 6.96 6.94 6.93 6.93 6.94 6.96 6.99 7.03 7.06 7.10 7.13 7.16 7.17
8.36 8.35 8.34 8.33 8.33 8.33 8.34 8.35 8.34 8.32 8.28 8.22 8.15 8.09 8.04 8.01 8.00 8.00 7.99 7.98 7.96 7.94 7.91 7.88 7.85 7.82 7.80 7.76 7.71 7.65 7.57 7.50 7.43 7.38 7.36 7.35 7.36 7.40 7.45 7.52 7.59 7.67 7.74 7.81 7.86 7.91 7.94 7.94 7.92 7.89 7.85 7.79 7.73 7.67 7.61 7.55 7.50 7.44 7.39 7.33 7.27 7.22 7.16 7.11 7.04 6.98 6.92 6.86 6.82 6.79 6.78 6.79 6.82 6.87 6.93 6.99 7.05 7.10 7.13 7.15 7.16 7.16 7.15 7.13 7.11 7.08 7.05 7.03 7.01 7.01 7.01 7.03 7.05 7.08 7.11 7.15 7.19 7.22 7.24 7.26
8.29 8.29 8.29 8.29 8.30 8.32 8.35 8.38 8.39 8.38 8.35 8.30 8.23 8.17 8.12 8.09 8.08 8.07 8.07 8.06 8.05 8.03 8.01 7.99 7.97 7.94 7.91 7.87 7.81 7.74 7.65 7.57 7.50 7.45 7.42 7.41 7.41 7.44 7.49 7.55 7.62 7.69 7.74 7.80 7.84 7.87 7.89 7.89 7.88 7.84 7.80 7.75 7.70 7.64 7.58 7.52 7.46 7.40 7.34 7.28 7.22 7.17 7.12 7.06 6.99 6.93 6.86 6.80 6.75 6.72 6.70 6.71 6.74 6.78 6.84 6.91 6.98 7.04 7.09 7.13 7.14 7.15 7.14 7.13 7.12 7.10 7.09 7.08 7.08 7.08 7.09 7.11 7.13 7.15 7.19 7.22 7.26 7.29 7.31 7.32
8.19 8.20 8.21 8.22 8.25 8.29 8.33 8.38 8.41 8.42 8.40 8.37 8.31 8.26 8.22 8.18 8.16 8.15 8.15 8.14 8.13 8.12 8.11 8.09 8.08 8.05 8.02 7.97 7.90 7.82 7.73 7.65 7.57 7.52 7.48 7.46 7.46 7.48 7.52 7.58 7.63 7.69 7.73 7.77 7.80 7.83 7.85 7.85 7.84 7.81 7.77 7.73 7.68 7.62 7.55 7.48 7.41 7.34 7.27 7.21 7.15 7.10 7.05 6.99 6.93 6.86 6.80 6.73 6.68 6.64 6.62 6.62 6.65 6.69 6.75 6.82 6.89 6.97 7.03 7.07 7.10 7.11 7.12 7.12 7.12 7.12 7.12 7.12 7.13 7.14 7.16 7.17 7.19 7.22 7.25 7.28 7.31 7.33 7.35 7.36
8.08 8.08 8.10 8.13 8.17 8.22 8.29 8.35 8.40 8.44 8.44 8.42 8.39 8.35 8.31 8.28 8.26 8.24 8.23 8.22 8.21 8.21 8.20 8.19 8.18 8.16 8.12 8.07 7.99 7.90 7.81 7.72 7.64 7.58 7.54 7.51 7.50 7.51 7.54 7.59 7.64 7.68 7.71 7.74 7.77 7.79 7.81 7.82 7.81 7.79 7.76 7.72 7.67 7.60 7.53 7.45 7.36 7.28 7.21 7.14 7.08 7.03 6.97 6.92 6.86 6.79 6.72 6.66 6.61 6.57 6.55 6.54 6.56 6.60 6.65 6.72 6.79 6.87 6.94 6.99 7.03 7.06 7.08 7.10 7.12 7.13 7.15 7.16 7.18 7.20 7.22 7.23 7.25 7.27 7.29 7.31 7.33 7.35 7.37 7.37
7.95 7.96 7.99 8.03 8.08 8.14 8.22 8.31 8.38 8.43 8.46 8.47 8.45 8.43 8.41 8.38 8.36 8.34 8.32 8.30 8.29 8.29 8.28 8.28 8.27 8.25 8.21 8.15 8.07 7.98 7.88 7.79 7.71 7.65 7.61 7.57 7.56 7.55 7.57 7.60 7.63 7.66 7.69 7.71 7.74 7.76 7.79 7.81 7.81 7.79 7.76 7.72 7.66 7.59 7.51 7.41 7.31 7.22 7.14 7.07 7.01 6.95 6.90 6.85 6.79 6.72 6.66 6.60 6.55 6.51 6.49 6.48 6.49 6.52 6.57 6.63 6.70 6.77 6.84 6.90 6.95 7.00 7.03 7.07 7.10 7.13 7.16 7.19 7.22 7.24 7.26 7.27 7.28 7.29 7.31 7.32 7.33 7.35 7.36 7.36
7.83 7.84 7.88 7.92 7.99 8.06 8.15 8.25 8.34 8.42 8.47 8.50 8.51 8.51 8.50 8.48 8.46 8.43 8.41 8.39 8.37 8.36 8.36 8.36 8.35 8.33 8.29 8.23 8.15 8.06 7.96 7.87 7.80 7.74 7.69 7.65 7.62 7.61 7.61 7.62 7.64 7.65 7.67 7.68 7.71 7.74 7.78 7.80 7.81 7.80 7.77 7.72 7.66 7.58 7.48 7.38 7.27 7.17 7.08 7.00 6.94 6.89 6.84 6.79 6.73 6.67 6.60 6.55 6.50 6.46 6.44 6.43 6.44 6.46 6.50 6.55 6.61 6.67 6.74 6.80 6.86 6.92 6.97 7.03 7.07 7.12 7.16 7.20 7.24 7.26 7.28 7.29 7.30 7.30 7.30 7.31 7.31 7.32 7.32 7.32
7.71 7.73 7.77 7.83 7.90 7.99 8.09 8.20 8.31 8.40 8.47 8.52 8.55 8.57 8.58 8.57 8.55 8.53 8.50 8.47 8.45 8.44 8.43 8.43 8.42 8.40 8.37 8.31 8.23 8.14 8.05 7.96 7.89 7.83 7.78 7.74 7.71 7.69 7.67 7.66 7.66 7.65 7.66 7.67 7.70 7.73 7.77 7.80 7.82 7.81 7.78 7.72 7.65 7.56 7.45 7.34 7.22 7.12 7.03 6.95 6.89 6.85 6.80 6.75 6.69 6.63 6.57 6.51 6.47 6.44 6.42 6.41 6.41 6.43 6.46 6.49 6.54 6.59 6.64 6.70 6.77 6.83 6.90 6.97 7.03 7.09 7.14 7.18 7.22 7.25 7.28 7.29 7.29 7.29 7.29 7.28 7.28 7.27 7.27 7.26
7.60 7.63 7.67 7.74 7.82 7.92 8.03 8.15 8.27 8.38 8.47 8.54 8.59 8.62 8.64 8.64 8.63 8.61 8.58 8.55 8.52 8.50 8.49 8.49 8.48 8.47 8.43 8.38 8.31 8.22 8.14 8.06 8.00 7.94 7.89 7.85 7.81 7.78 7.75 7.72 7.69 7.67 7.66 7.67 7.69 7.73 7.77 7.81 7.82 7.81 7.77 7.71 7.62 7.52 7.41 7.30 7.18 7.08 6.98 6.91 6.86 6.81 6.77 6.73 6.68 6.62 6.56 6.51 6.46 6.43 6.41 6.40 6.40 6.42 6.44 6.47 6.50 6.53 6.57 6.62 6.68 6.75 6.82 6.89 6.96 7.03 7.09 7.14 7.18 7.22 7.24 7.26 7.26 7.26 7.26 7.25 7.24 7.22 7.21 7.20
7.50 7.53 7.58 7.66 7.75 7.86 7.98 8.11 8.24 8.36 8.46 8.55 8.61 8.66 8.68 8.69 8.69 8.66 8.63 8.60 8.57 8.55 8.54 8.53 8.53 8.52 8.49 8.44 8.38 8.31 8.24 8.17 8.11 8.06 8.01 7.96 7.92 7.88 7.83 7.79 7.75 7.71 7.69 7.68 7.70 7.74 7.78 7.80 7.81 7.79 7.75 7.68 7.59 7.48 7.37 7.26 7.14 7.04 6.95 6.88 6.83 6.79 6.76 6.72 6.68 6.63 6.58 6.52 6.48 6.45 6.43 6.42 6.42 6.43 6.45 6.46 6.48 6.50 6.52 6.55 6.60 6.66 6.73 6.81 6.88 6.95 7.01 7.06 7.11 7.15 7.18 7.20 7.22 7.22 7.22 7.21 7.19 7.17 7.15 7.13
7.40 7.43 7.49 7.58 7.69 7.81 7.94 8.07 8.21 8.34 8.45 8.54 8.61 8.66 8.70 8.71 8.71 8.69 8.66 8.62 8.59 8.57 8.56 8.56 8.55 8.55 8.53 8.50 8.45 8.40 8.34 8.28 8.22 8.17 8.13 8.08 8.03 7.98 7.93 7.87 7.81 7.76 7.73 7.71 7.72 7.75 7.78 7.80 7.80 7.77 7.72 7.64 7.55 7.44 7.33 7.22 7.11 7.01 6.92 6.85 6.80 6.77 6.75 6.72 6.69 6.65 6.60 6.56 6.52 6.48 6.46 6.46 6.46 6.47 6.48 6.48 6.48 6.48 6.49 6.50 6.53 6.58 6.64 6.71 6.78 6.85 6.91 6.97 7.02 7.07 7.11 7.14 7.16 7.17 7.17 7.16 7.14 7.12 7.09 7.07
7.30 7.34 7.41 7.51 7.62 7.75 7.89 8.03 8.17 8.30 8.41 8.50 8.58 8.64 8.67 8.69 8.69 8.67 8.64 8.61 8.58 8.56 8.55 8.55 8.56 8.56 8.55 8.54 8.51 8.47 8.43 8.38 8.33 8.28 8.24 8.19 8.14 8.09 8.03 7.96 7.89 7.83 7.78 7.75 7.75 7.76 7.78 7.79 7.78 7.75 7.69 7.60 7.50 7.40 7.29 7.18 7.07 6.97 6.89 6.82 6.77 6.74 6.72 6.71 6.69 6.66 6.63 6.59 6.56 6.53 6.51 6.50 6.51 6.51 6.51 6.51 6.50 6.48 6.47 6.46 6.48 6.51 6.56 6.61 6.67 6.73 6.79 6.85 6.91 6.96 7.01 7.05 7.08 7.10 7.11 7.11 7.09 7.06 7.03 7.02
7.21 7.26 7.33 7.44 7.56 7.70 7.84 7.98 8.12 8.24 8.35 8.45 8.52 8.57 8.61 8.63 8.63 8.62 8.60 8.57 8.54 8.52 8.52 8.52 8.53 8.54 8.55 8.55 8.55 8.53 8.51 8.47 8.43 8.39 8.34 8.30 8.25 8.20 8.13 8.06 7.98 7.90 7.84 7.80 7.78 7.78 7.79 7.78 7.76 7.72 7.65 7.57 7.46 7.35 7.24 7.14 7.03 6.93 6.84 6.77 6.72 6.69 6.68 6.68 6.67 6.66 6.64 6.61 6.59 6.57 6.55 6.55 6.55 6.55 6.54 6.53 6.50 6.47 6.45 6.43 6.43 6.45 6.48 6.52 6.57 6.62 6.67 6.73 6.79 6.85 6.90 6.95 6.99 7.02 7.03 7.04 7.02 7.00 6.98 6.96
7.14 7.19 7.27 7.38 7.50 7.64 7.78 7.92 8.05 8.17 8.27 8.36 8.42 8.47 8.51 8.53 8.53 8.53 8.51 8.49 8.47 8.45 8.45 8.46 8.47 8.50 8.52 8.54 8.56 8.57 8.57 8.55 8.52 8.48 8.45 8.40 8.36 8.30 8.23 8.15 8.07 7.98 7.91 7.86 7.82 7.80 7.79 7.78 7.75 7.70 7.62 7.53 7.43 7.31 7.20 7.09 6.98 6.88 6.79 6.72 6.67 6.63 6.62 6.62 6.63 6.63 6.62 6.61 6.60 6.59 6.58 6.58 6.58 6.57 6.56 6.53 6.49 6.46 6.42 6.40 6.39 6.40 6.42 6.44 6.47 6.51 6.55 6.60 6.66 6.72 6.78 6.84 6.88 6.92 6.94 6.95 6.94 6.93 6.91 6.90
7.09 7.14 7.22 7.33 7.46 7.59 7.72 7.85 7.96 8.07 8.16 8.24 8.30 8.35 8.38 8.40 8.40 8.40 8.40 8.38 8.37 8.36 8.36 8.37 8.40 8.43 8.47 8.51 8.56 8.59 8.61 8.62 8.60 8.57 8.54 8.50 8.45 8.40 8.33 8.25 8.16 8.07 7.99 7.92 7.87 7.83 7.80 7.77 7.73 7.68 7.60 7.50 7.39 7.27 7.15 7.04 6.93 6.83 6.74 6.67 6.61 6.58 6.56 6.56 6.57 6.57 6.58 6.58 6.59 6.59 6.59 6.58 6.58 6.57 6.54 6.51 6.47 6.42 6.39 6.37 6.35 6.35 6.35 6.36 6.38 6.40 6.43 6.47 6.52 6.58 6.65 6.71 6.76 6.80 6.82 6.84 6.84 6.84 6.83 6.82
7.06 7.10 7.19 7.29 7.41 7.53 7.65 7.76 7.87 7.96 8.04 8.10 8.16 8.20 8.23 8.25 8.26 8.26 8.26 8.25 8.25 8.25 8.25 8.27 8.31 8.35 8.40 8.47 8.53 8.59 8.64 8.66 8.66 8.64 8.61 8.57 8.53 8.47 8.41 8.33 8.25 8.16 8.07 7.99 7.93 7.87 7.82 7.78 7.73 7.67 7.58 7.48 7.35 7.23 7.10 6.99 6.88 6.79 6.70 6.63 6.57 6.53 6.51 6.50 6.50 6.51 6.52 6.53 6.55 6.56 6.56 6.56 6.55 6.54 6.51 6.47 6.42 6.38 6.35 6.32 6.30 6.29 6.28 6.28 6.28 6.29 6.31 6.34 6.39 6.44 6.51 6.57 6.62 6.67 6.70 6.72 6.74 6.74 6.74 6.73
7.04 7.09 7.17 7.27 7.37 7.48 7.58 7.68 7.76 7.84 7.90 7.96 8.01 8.05 8.07 8.09 8.10 8.11 8.11 8.12 8.12 8.13 8.15 8.17 8.21 8.27 8.34 8.41 8.50 8.58 8.64 8.68 8.69 8.68 8.65 8.62 8.58 8.53 8.47 8.41 8.33 8.24 8.16 8.08 8.00 7.92 7.85 7.79 7.73 7.66 7.56 7.45 7.32 7.19 7.06 6.94 6.84 6.75 6.67 6.60 6.54 6.50 6.47 6.45 6.44 6.44 6.45 6.46 6.48 6.50 6.51 6.51 6.51 6.49 6.45 6.41 6.37 6.33 6.30 6.27 6.25 6.23 6.21 6.20 6.19 6.19 6.20 6.22 6.26 6.31 6.37 6.43 6.49 6.54 6.58 6.60 6.63 6.64 6.64 6.65
7.04 7.08 7.15 7.25 7.34 7.43 7.51 7.59 7.66 7.72 7.78 7.83 7.88 7.91 7.93 7.94 7.95 7.97 7.98 7.99 8.00 8.02 8.04 8.08 8.13 8.19 8.27 8.36 8.45 8.54 8.61 8.66 8.68 8.68 8.66 8.63 8.59 8.56 8.51 8.46 8.40 8.33 8.25 8.16 8.07 7.98 7.90 7.82 7.74 7.65 7.55 7.42 7.28 7.14 7.02 6.90 6.81 6.72 6.65 6.58 6.53 6.48 6.44 6.41 6.38 6.37 6.37 6.38 6.39 6.41 6.43 6.44 6.43 6.42 6.39 6.35 6.31 6.28 6.24 6.22 6.19 6.17 6.14 6.12 6.10 6.10 6.10 6.12 6.15 6.20 6.25 6.31 6.37 6.42 6.46 6.50 6.53 6.55 6.56 6.57
7.05 7.08 7.15 7.23 7.31 7.38 7.45 7.51 7.57 7.62 7.68 7.72 7.76 7.79 7.81 7.82 7.83 7.85 7.86 7.88 7.90 7.93 7.96 8.00 8.06 8.13 8.21 8.31 8.40 8.49 8.56 8.61 8.64 8.64 8.62 8.60 8.57 8.55 8.52 8.49 8.45 8.39 8.32 8.24 8.14 8.05 7.95 7.85 7.75 7.65 7.53 7.39 7.25 7.10 6.97 6.86 6.77 6.69 6.62 6.56 6.51 6.46 6.42 6.37 6.33 6.31 6.29 6.29 6.30 6.31 6.33 6.34 6.35 6.34 6.32 6.29 6.26 6.23 6.20 6.17 6.14 6.11 6.08 6.05 6.03 6.01 6.01 6.03 6.06 6.10 6.15 6.21 6.26 6.32 6.36 6.41 6.44 6.48 6.50 6.51
7.06 7.09 7.15 7.21 7.28 7.34 7.40 7.45 7.50 7.55 7.60 7.64 7.68 7.71 7.72 7.73 7.74 7.76 7.78 7.81 7.83 7.87 7.90 7.95 8.01 8.09 8.17 8.26 8.35 8.43 8.49 8.54 8.56 8.57 8.56 8.54 8.53 8.52 8.51 8.50 8.47 8.43 8.37 8.30 8.21 8.11 8.00 7.89 7.78 7.65 7.51 7.37 7.21 7.06 6.93 6.82 6.72 6.65 6.58 6.53 6.48 6.43 6.38 6.33 6.29 6.25 6.22 6.20 6.20 6.21 6.23 6.24 6.26 6.26 6.25 6.24 6.22 6.19 6.17 6.13 6.10 6.06 6.03 5.99 5.97 5.95 5.95 5.96 5.99 6.03 6.07 6.13 6.19 6.24 6.29 6.34 6.38 6.42 6.45 6.47
7.09 7.11 7.16 7.21 7.26 7.31 7.36 7.40 7.45 7.49 7.54 7.58 7.62 7.65 7.67 7.68 7.69 7.71 7.73 7.76 7.80 7.84 7.88 7.93 7.99 8.07 8.14 8.22 8.30 8.37 8.42 8.46 8.48 8.49 8.48 8.48 8.47 8.48 8.48 8.48 8.47 8.45 8.40 8.33 8.25 8.15 8.05 7.93 7.80 7.66 7.50 7.34 7.18 7.03 6.89 6.78 6.68 6.60 6.54 6.48 6.43 6.39 6.34 6.29 6.24 6.19 6.15 6.12 6.11 6.12 6.13 6.15 6.17 6.19 6.19 6.19 6.18 6.17 6.14 6.11 6.07 6.03 5.99 5.95 5.92 5.91 5.90 5.92 5.94 5.98 6.03 6.08 6.13 6.19 6.24 6.29 6.34 6.38 6.42 6.43
7.12 7.14 7.18 7.22 7.26 7.30 7.34 7.37 7.41 7.45 7.50 7.54 7.58 7.61 7.63 7.65 7.66 7.69 7.72 7.76 7.80 7.84 7.89 7.94 8.00 8.07 8.13 8.20 8.26 8.32 8.36 8.39 8.41 8.42 8.42 8.43 8.43 8.44 8.45 8.46 8.46 8.44 8.40 8.35 8.27 8.19 8.08 7.96 7.82 7.67 7.50 7.32 7.15 7.00 6.86 6.74 6.64 6.56 6.49 6.43 6.38 6.33 6.29 6.24 6.19 6.14 6.10 6.06 6.05 6.05 6.06 6.08 6.10 6.12 6.14 6.15 6.15 6.14 6.12 6.09 6.06 6.02 5.97 5.93 5.90 5.88 5.88 5.90 5.92 5.96 6.00 6.05 6.10 6.15 6.21 6.26 6.31 6.35 6.39 6.40
7.16 7.17 7.20 7.23 7.26 7.30 7.33 7.36 7.39 7.43 7.47 7.51 7.55 7.59 7.61 7.64 7.66 7.69 7.73 7.77 7.82 7.87 7.92 7.98 8.03 8.08 8.14 8.19 8.24 8.28 8.32 8.35 8.37 8.38 8.39 8.40 8.41 8.42 8.43 8.44 8.44 8.42 8.39 8.34 8.28 8.20 8.10 7.98 7.84 7.68 7.50 7.31 7.13 6.97 6.83 6.71 6.61 6.52 6.45 6.39 6.34 6.29 6.25 6.20 6.16 6.11 6.06 6.03 6.01 6.00 6.01 6.03 6.05 6.07 6.09 6.11 6.12 6.12 6.10 6.08 6.05 6.00 5.96 5.92 5.89 5.87 5.88 5.90 5.93 5.96 6.00 6.04 6.08 6.13 6.18 6.23 6.27 6.32 6.35 6.37
7.19 7.20 7.22 7.24 7.27 7.29 7.32 7.34 7.37 7.41 7.45 7.49 7.53 7.57 7.61 7.64 7.67 7.71 7.76 7.81 7.86 7.92 7.97 8.02 8.07 8.11 8.15 8.19 8.22 8.26 8.30 8.33 8.35 8.37 8.39 8.40 8.42 8.42 8.43 8.44 8.43 8.41 8.39 8.34 8.29 8.21 8.12 8.00 7.85 7.68 7.50 7.31 7.13 6.96 6.82 6.70 6.60 6.51 6.43 6.36 6.31 6.27 6.23 6.18 6.14 6.09 6.05 6.01 6.00 5.99 6.00 6.01 6.02 6.04 6.06 6.07 6.08 6.09 6.08 6.06 6.03 5.99 5.95 5.91 5.89 5.88 5.89 5.91 5.94 5.97 6.00 6.04 6.07 6.11 6.15 6.19 6.23 6.27 6.30 6.32
7.20 7.21 7.22 7.24 7.26 7.28 7.30 7.33 7.36 7.40 7.44 7.49 7.53 7.58 7.62 7.66 7.71 7.75 7.80 7.86 7.91 7.97 8.02 8.07 8.10 8.13 8.16 8.19 8.22 8.26 8.30 8.33 8.37 8.39 8.41 8.43 8.44 8.44 8.45 8.44 8.44 8.42 8.39 8.35 8.29 8.21 8.12 8.00 7.86 7.69 7.50 7.31 7.13 6.97 6.83 6.71 6.60 6.51 6.43 6.37 6.32 6.27 6.22 6.18 6.14 6.09 6.05 6.02 6.01 6.00 6.01 6.01 6.02 6.02 6.03 6.04 6.05 6.06 6.06 6.04 6.02 5.98 5.94 5.91 5.90 5.89 5.91 5.94 5.97 6.00 6.02 6.05 6.07 6.09 6.12 6.15 6.19 6.22 6.24 6.26
7.21 7.21 7.21 7.22 7.24 7.26 7.29 7.32 7.36 7.40 7.45 7.50 7.55 7.61 7.66 7.71 7.76 7.81 7.86 7.92 7.97 8.03 8.07 8.11 8.14 8.16 8.18 8.20 8.24 8.27 8.32 8.36 8.40 8.43 8.45 8.46 8.47 8.47 8.47 8.46 8.45 8.43 8.40 8.35 8.29 8.21 8.12 8.00 7.86 7.69 7.51 7.33 7.16 7.00 6.86 6.73 6.63 6.54 6.46 6.40 6.34 6.29 6.24 6.20 6.15 6.11 6.08 6.06 6.04 6.04 6.04 6.04 6.03 6.03 6.03 6.03 6.04 6.04 6.04 6.03 6.01 5.97 5.94 5.92 5.91 5.91 5.93 5.96 6.00 6.03 6.05 6.07 6.08 6.09 6.10 6.12 6.14 6.16 6.18 6.19
7.21 7.20 7.20 7.21 7.22 7.24 7.28 7.32 7.37 7.42 7.48 7.54 7.60 7.66 7.71 7.77 7.83 7.88 7.93 7.98 8.04 8.08 8.12 8.16 8.18 8.19 8.21 8.23 8.26 8.30 8.35 8.40 8.44 8.47 8.49 8.50 8.50 8.50 8.50 8.49 8.47 8.44 8.41 8.35 8.29 8.21 8.11 7.99 7.85 7.69 7.52 7.35 7.18 7.03 6.89 6.77 6.67 6.58 6.50 6.44 6.38 6.33 6.28 6.23 6.19 6.15 6.13 6.11 6.10 6.09 6.09 6.08 6.07 6.06 6.05 6.04 6.04 6.04 6.03 6.02 6.00 5.97 5.95 5.93 5.93 5.94 5.96 5.99 6.03 6.07 6.09 6.11 6.11 6.11 6.10 6.10 6.10 6.11 6.12 6.13
7.21 7.20 7.20 7.20 7.21 7.24 7.28 7.33 7.39 7.46 7.52 7.59 7.66 7.72 7.79 7.85 7.90 7.95 8.00 8.05 8.09 8.14 8.17 8.20 8.21 8.23 8.24 8.26 8.30 8.34 8.39 8.44 8.48 8.51 8.53 8.53 8.53 8.52 8.52 8.50 8.48 8.45 8.41 8.35 8.28 8.20 8.10 7.98 7.84 7.69 7.53 7.37 7.22 7.07 6.94 6.82 6.72 6.63 6.56 6.49 6.43 6.37 6.32 6.27 6.23 6.20 6.18 6.17 6.16 6.16 6.15 6.14 6.13 6.11 6.09 6.08 6.07 6.05 6.04 6.03 6.01 5.99 5.97 5.96 5.96 5.97 6.00 6.03 6.07 6.11 6.14 6.15 6.15 6.14 6.12 6.11 6.10 6.09 6.10 6.10
7.23 7.22 7.21 7.21 7.22 7.25 7.29 7.35 7.42 7.50 7.58 7.65 7.73 7.80 7.87 7.93 7.98 8.02 8.06 8.10 8.14 8.18 8.21 8.23 8.25 8.26 8.28 8.31 8.35 8.39 8.44 8.48 8.52 8.55 8.56 8.55 8.55 8.54 8.53 8.51 8.48 8.45 8.40 8.33 8.26 8.18 8.08 7.96 7.83 7.69 7.54 7.39 7.25 7.11 6.99 6.87 6.77 6.69 6.61 6.55 6.48 6.42 6.36 6.31 6.28 6.25 6.24 6.23 6.23 6.23 6.22 6.21 6.20 6.18 6.16 6.13 6.11 6.09 6.08 6.06 6.04 6.02 6.01 6.01 6.01 6.02 6.05 6.08 6.12 6.16 6.19 6.21 6.21 6.20 6.17 6.14 6.12 6.11 6.10 6.10
7.27 7.26 7.25 7.24 7.25 7.28 7.32 7.39 7.47 7.55 7.63 7.72 7.80 7.88 7.95 8.00 8.05 8.08 8.11 8.14 8.18 8.21 8.23 8.26 8.28 8.30 8.33 8.36 8.40 8.44 8.48 8.52 8.55 8.57 8.57 8.57 8.56 8.54 8.52 8.50 8.47 8.43 8.38 8.31 8.24 8.16 8.06 7.95 7.82 7.69 7.55 7.41 7.28 7.15 7.03 6.93 6.83 6.75 6.67 6.60 6.53 6.46 6.40 6.35 6.32 6.30 6.29 6.29 6.29 6.29 6.28 6.27 6.26 6.24 6.22 6.19 6.17 6.14 6.12 6.11 6.09 6.08 6.08 6.08 6.08 6.10 6.12 6.15 6.19 6.22 6.25 6.27 6.27 6.26 6.24 6.20 6.17 6.15 6.14 6.13
7.32 7.31 7.30 7.29 7.30 7.33 7.37 7.44 7.51 7.60 7.69 7.78 7.86 7.94 8.01 8.06 8.10 8.13 8.16 8.18 8.21 8.23 8.26 8.28 8.31 8.35 8.38 8.42 8.46 8.49 8.53 8.56 8.58 8.58 8.58 8.57 8.55 8.53 8.51 8.49 8.45 8.41 8.35 8.29 8.22 8.13 8.04 7.93 7.81 7.68 7.56 7.43 7.31 7.19 7.08 6.98 6.89 6.80 6.73 6.65 6.58 6.51 6.44 6.39 6.36 6.35 6.34 6.34 6.34 6.34 6.34 6.33 6.32 6.30 6.28 6.25 6.22 6.20 6.18 6.17 6.16 6.16 6.16 6.17 6.18 6.19 6.21 6.23 6.26 6.29 6.31 6.33 6.34 6.33 6.31 6.28 6.24 6.21 6.19 6.18
7.37 7.36 7.36 7.36 7.37 7.39 7.43 7.49 7.56 7.65 7.74 7.83 7.92 8.00 8.07 8.12 8.16 8.18 8.20 8.22 8.23 8.26 8.28 8.31 8.34 8.39 8.43 8.47 8.51 8.54 8.57 8.58 8.59 8.59 8.57 8.55 8.53 8.51 8.49 8.46 8.42 8.38 8.33 8.26 8.19 8.11 8.01 7.91 7.79 7.68 7.56 7.45 7.34 7.23 7.12 7.02 6.93 6.85 6.77 6.69 6.62 6.54 6.48 6.44 6.41 6.39 6.39 6.39 6.39 6.39 6.38 6.37 6.36 6.34 6.31 6.29 6.26 6.24 6.23 6.23 6.23 6.24 6.26 6.27 6.28 6.29 6.31 6.32 6.34 6.36 6.38 6.39 6.40 6.40 6.38 6.35 6.32 6.29 6.27 6.25
7.42 7.42 7.42 7.42 7.44 7.46 7.50 7.55 7.62 7.70 7.79 7.88 7.97 8.05 8.12 8.17 8.21 8.23 8.25 8.26 8.27 8.29 8.31 8.33 8.37 8.42 8.47 8.51 8.55 8.58 8.59 8.60 8.59 8.58 8.56 8.53 8.51 8.48 8.46 8.43 8.39 8.35 8.30 8.24 8.17 8.09 8.00 7.89 7.78 7.67 7.57 7.46 7.36 7.25 7.15 7.06 6.97 6.89 6.81 6.73 6.66 6.58 6.53 6.48 6.46 6.45 6.44 6.44 6.43 6.43 6.42 6.41 6.39 6.37 6.33 6.31 6.28 6.27 6.27 6.28 6.30 6.32 6.34 6.36 6.38 6.39 6.40 6.41 6.42 6.43 6.44 6.45 6.46 6.46 6.45 6.43 6.40 6.38 6.35 6.34
7.47 7.47 7.48 7.49 7.51 7.54 7.57 7.62 7.68 7.76 7.84 7.93 8.01 8.10 8.17 8.22 8.26 8.29 8.30 8.31 8.31 8.32 8.34 8.36 8.40 8.44 8.49 8.53 8.56 8.59 8.60 8.60 8.59 8.56 8.53 8.50 8.48 8.45 8.43 8.40 8.37 8.33 8.28 8.22 8.16 8.08 7.99 7.89 7.78 7.68 7.58 7.48 7.38 7.28 7.18 7.09 7.01 6.93 6.85 6.77 6.70 6.63 6.58 6.54 6.52 6.51 6.50 6.49 6.49 6.47 6.46 6.44 6.41 6.38 6.35 6.32 6.30 6.29 6.30 6.32 6.35 6.39 6.42 6.44 6.46 6.48 6.49 6.50 6.50 6.51 6.51 6.51 6.52 6.52 6.52 6.51 6.49 6.47 6.45 6.44
7.52 7.52 7.54 7.56 7.58 7.61 7.65 7.69 7.75 7.82 7.89 7.98 8.06 8.14 8.22 8.27 8.31 8.34 8.35 8.35 8.35 8.35 8.36 8.38 8.41 8.45 8.49 8.53 8.56 8.58 8.59 8.59 8.57 8.54 8.50 8.47 8.44 8.42 8.40 8.38 8.35 8.31 8.27 8.22 8.15 8.07 7.99 7.89 7.79 7.69 7.59 7.50 7.40 7.30 7.21 7.13 7.05 6.97 6.89 6.82 6.75 6.69 6.64 6.61 6.59 6.58 6.57 6.56 6.54 6.53 6.50 6.47 6.44 6.40 6.36 6.33 6.31 6.31 6.32 6.35 6.39 6.43 6.47 6.50 6.52 6.54 6.56 6.57 6.58 6.58 6.57 6.57 6.58 6.58 6.58 6.58 6.57 6.56 6.55 6.54
7.57 7.58 7.60 7.63 7.66 7.70 7.73 7.77 7.82 7.88 7.95 8.03 8.11 8.19 8.26 8.32 8.35 8.37 8.38 8.38 8.38 8.38 8.38 8.40 8.42 8.45 8.48 8.51 8.53 8.55 8.56 8.56 8.54 8.51 8.48 8.44 8.42 8.39 8.38 8.36 8.33 8.30 8.26 8.21 8.15 8.07 7.99 7.89 7.80 7.70 7.61 7.52 7.43 7.34 7.25 7.17 7.10 7.02 6.95 6.88 6.82 6.76 6.72 6.69 6.67 6.65 6.64 6.63 6.61 6.58 6.55 6.51 6.47 6.43 6.38 6.35 6.33 6.33 6.34 6.37 6.41 6.46 6.50 6.54 6.57 6.59 6.61 6.63 6.63 6.63 6.63 6.63 6.63 6.64 6.64 6.64 6.65 6.64 6.64 6.64
7.64 7.65 7.68 7.72 7.76 7.79 7.83 7.86 7.90 7.95 8.01 8.08 8.15 8.22 8.29 8.35 8.38 8.40 8.40 8.39 8.39 8.39 8.39 8.40 8.42 8.44 8.46 8.48 8.50 8.52 8.53 8.53 8.51 8.48 8.45 8.43 8.40 8.38 8.36 8.34 8.32 8.29 8.26 8.21 8.14 8.06 7.98 7.88 7.79 7.71 7.62 7.54 7.46 7.38 7.30 7.23 7.16 7.09 7.01 6.95 6.89 6.84 6.80 6.77 6.75 6.73 6.72 6.70 6.67 6.64 6.60 6.56 6.51 6.46 6.42 6.38 6.36 6.35 6.36 6.39 6.43 6.47 6.52 6.56 6.60 6.63 6.65 6.66 6.68 6.68 6.68 6.69 6.69 6.69 6.70 6.71 6.71 6.71 6.71 6.71
7.72 7.74 7.77 7.81 7.86 7.90 7.93 7.96 7.99 8.03 8.07 8.13 8.19 8.26 8.32 8.36 8.39 8.40 8.40 8.39 8.39 8.38 8.39 8.40 8.42 8.43 8.44 8.46 8.47 8.49 8.49 8.49 8.48 8.46 8.44 8.42 8.40 8.38 8.36 8.34 8.31 8.28 8.24 8.19 8.12 8.04 7.95 7.86 7.77 7.70 7.63 7.56 7.49 7.42 7.35 7.28 7.22 7.15 7.08 7.01 6.96 6.91 6.87 6.85 6.83 6.81 6.79 6.76 6.73 6.69 6.65 6.60 6.55 6.50 6.45 6.41 6.38 6.37 6.38 6.40 6.44 6.48 6.53 6.58 6.62 6.65 6.67 6.69 6.70 6.72 6.73 6.73 6.74 6.74 6.75 6.76 6.76 6.76 6.76 6.76
7.81 7.83 7.87 7.92 7.96 8.01 8.04 8.06 8.08 8.11 8.14 8.18 8.24 8.29 8.34 8.37 8.39 8.40 8.39 8.38 8.38 8.38 8.39 8.40 8.41 8.42 8.43 8.44 8.45 8.46 8.46 8.46 8.45 8.44 8.42 8.41 8.39 8.37 8.35 8.33 8.30 8.26 8.22 8.16 8.08 8.00 7.91 7.82 7.74 7.68 7.62 7.56 7.51 7.45 7.39 7.33 7.27 7.20 7.13 7.07 7.01 6.97 6.94 6.92 6.90 6.88 6.85 6.81 6.78 6.73 6.68 6.63 6.58 6.53 6.48 6.44 6.41 6.40 6.40 6.42 6.45 6.50 6.55 6.59 6.63 6.66 6.68 6.70 6.72 6.74 6.76 6.77 6.78 6.79 6.80 6.80 6.80 6.80 6.79 6.79
7.91 7.93 7.97 8.02 8.07 8.11 8.15 8.17 8.18 8.19 8.21 8.24 8.28 8.32 8.36 8.38 8.39 8.39 8.38 8.37 8.37 8.37 8.38 8.39 8.40 8.41 8.42 8.42 8.43 8.43 8.43 8.42 8.42 8.41 8.40 8.39 8.38 8.37 8.34 8.31 8.28 8.23 8.18 8.11 8.03 7.95 7.86 7.78 7.71 7.65 7.60 7.56 7.52 7.47 7.42 7.37 7.31 7.24 7.17 7.11 7.05 7.01 6.99 6.97 6.95 6.93 6.89 6.85 6.81 6.75 6.70 6.65 6.59 6.54 6.50 6.46 6.44 6.42 6.43 6.44 6.48 6.52 6.56 6.61 6.64 6.67 6.69 6.71 6.73 6.76 6.78 6.80 6.81 6.83 6.84 6.84 6.83 6.82 6.81 6.80
7.99 8.01 8.05 8.10 8.16 8.20 8.24 8.26 8.27 8.27 8.28 8.30 8.33 8.36 8.37 8.38 8.38 8.37 8.36 8.36 8.36 8.36 8.37 8.39 8.39 8.40 8.40 8.41 8.41 8.41 8.40 8.39 8.38 8.37 8.37 8.37 8.36 8.34 8.32 8.29 8.25 8.20 8.14 8.07 7.99 7.90 7.82 7.74 7.68 7.63 7.59 7.56 7.52 7.48 7.44 7.39 7.32 7.25 7.18 7.12 7.07 7.04 7.02 7.01 6.99 6.96 6.92 6.87 6.82 6.76 6.70 6.64 6.59 6.54 6.51 6.48 6.47 6.46 6.47 6.49 6.52 6.55 6.59 6.63 6.66 6.68 6.70 6.72 6.74 6.77 6.80 6.82 6.84 6.85 6.86 6.86 6.84 6.82 6.80 6.79
8.06 8.08 8.12 8.17 8.22 8.27 8.31 8.33 8.34 8.35 8.35 8.37 8.38 8.39 8.39 8.38 8.37 8.35 8.34 8.34 8.34 8.35 8.36 8.37 8.38 8.38 8.39 8.39 8.39 8.38 8.37 8.36 8.35 8.34 8.34 8.33 8.33 8.31 8.29 8.26 8.21 8.16 8.10 8.03 7.95 7.87 7.79 7.72 7.67 7.62 7.59 7.55 7.52 7.49 7.45 7.39 7.33 7.25 7.18 7.12 7.08 7.05 7.04 7.03 7.01 6.98 6.94 6.88 6.82 6.76 6.69 6.64 6.59 6.55 6.52 6.50 6.50 6.51 6.52 6.54 6.57 6.60 6.64 6.66 6.68 6.70 6.72 6.74 6.76 6.79 6.81 6.84 6.86 6.87 6.87 6.86 6.84 6.81 6.78 6.76
8.11 8.13 8.17 8.22 8.27 8.32 8.36 8.38 8.40 8.41 8.42 8.42 8.43 8.43 8.41 8.38 8.36 8.33 8.32 8.31 8.32 8.33 8.34 8.35 8.36 8.37 8.37 8.37 8.37 8.36 8.35 8.34 8.32 8.31 8.31 8.30 8.30 8.28 8.26 8.23 8.18 8.13 8.07 8.00 7.93 7.86 7.79 7.72 7.67 7.63 7.59 7.56 7.53 7.50 7.45 7.39 7.32 7.25 7.17 7.11 7.07 7.05 7.05 7.04 7.02 6.98 6.94 6.88 6.82 6.75 6.69 6.64 6.59 6.56 6.54 6.54 6.55 6.57 6.59 6.62 6.64 6.67 6.69 6.71 6.72 6.73 6.74 6.76 6.78 6.81 6.83 6.85 6.86 6.87 6.87 6.85 6.82 6.78 6.75 6.73
8.14 8.16 8.20 8.24 8.29 8.34 8.38 8.41 8.43 8.45 8.46 8.47 8.47 8.45 8.42 8.38 8.34 8.31 8.29 8.28 8.28 8.29 8.31 8.32 8.33 8.34 8.35 8.35 8.35 8.35 8.34 8.32 8.31 8.29 8.29 8.28 8.28 8.26 8.24 8.20 8.16 8.11 8.06 8.00 7.94 7.87 7.81 7.75 7.69 7.64 7.61 7.57 7.54 7.50 7.46 7.39 7.32 7.24 7.17 7.11 7.08 7.06 7.05 7.04 7.02 6.99 6.93 6.88 6.81 6.75 6.70 6.66 6.62 6.59 6.58 6.59 6.60 6.63 6.66 6.69 6.72 6.74 6.76 6.77 6.77 6.77 6.78 6.80 6.81 6.83 6.85 6.86 6.86 6.86 6.85 6.82 6.79 6.74 6.70 6.68
8.16 8.18 8.21 8.26 8.30 8.34 8.38 8.41 8.44 8.46 8.48 8.50 8.49 8.47 8.43 8.38 8.33 8.29 8.26 8.24 8.24 8.25 8.27 8.28 8.30 8.31 8.32 8.33 8.33 8.33 8.33 8.32 8.31 8.29 8.28 8.28 8.27 8.26 8.23 8.20 8.16 8.11 8.07 8.02 7.96 7.90 7.84 7.78 7.72 7.67 7.63 7.59 7.55 7.51 7.46 7.40 7.32 7.25 7.17 7.12 7.09 7.07 7.06 7.05 7.03 6.99 6.94 6.88 6.82 6.77 6.73 6.70 6.67 6.65 6.64 6.65 6.67 6.70 6.73 6.76 6.79 6.82 6.83 6.83 6.83 6.83 6.83 6.84 6.85 6.86 6.87 6.87 6.86 6.85 6.82 6.79 6.75 6.70 6.66 6.64
8.16 8.18 8.21 8.25 8.29 8.32 8.35 8.39 8.42 8.45 8.48 8.50 8.50 8.47 8.43 8.37 8.31 8.26 8.22 8.20 8.20 8.21 8.22 8.24 8.25 8.26 8.28 8.29 8.31 8.32 8.32 8.32 8.31 8.30 8.30 8.29 8.28 8.27 8.24 8.21 8.17 8.14 8.09 8.05 8.00 7.95 7.89 7.82 7.76 7.71 7.66 7.61 7.57 7.53 7.47 7.41 7.34 7.26 7.19 7.14 7.11 7.10 7.09 7.07 7.04 7.00 6.95 6.90 6.85 6.81 6.78 6.75 6.73 6.72 6.71 6.71 6.73 6.76 6.79 6.82 6.86 6.88 6.89 6.90 6.90 6.89 6.89 6.89 6.90 6.90 6.89 6.88 6.86 6.84 6.80 6.76 6.72 6.67 6.63 6.61
8.16 8.17 8.20 8.23 8.26 8.29 8.31 8.34 8.38 8.42 8.45 8.48 8.48 8.46 8.41 8.36 8.30 8.24 8.20 8.17 8.16 8.17 8.18 8.19 8.20 8.21 8.23 8.26 8.28 8.31 8.32 8.33 8.33 8.32 8.32 8.31 8.31 8.29 8.27 8.24 8.21 8.17 8.14 8.09 8.05 7.99 7.93 7.86 7.80 7.74 7.69 7.64 7.60 7.55 7.50 7.43 7.36 7.29 7.23 7.19 7.16 7.14 7.12 7.10 7.07 7.03 6.98 6.94 6.90 6.87 6.85 6.83 6.81 6.79 6.78 6.78 6.79 6.82 6.84 6.88 6.91 6.94 6.96 6.97 6.97 6.96 6.96 6.96 6.95 6.94 6.93 6.90 6.87 6.84 6.80 6.75 6.70 6.66 6.62 6.60
8.14 8.15 8.17 8.20 8.22 8.24 8.27 8.29 8.33 8.37 8.41 8.44 8.45 8.43 8.39 8.34 8.28 8.23 8.19 8.16 8.14 8.14 8.14 8.15 8.16 8.17 8.20 8.23 8.26 8.30 8.33 8.34 8.35 8.35 8.35 8.34 8.34 8.33 8.31 8.28 8.25 8.22 8.18 8.14 8.09 8.03 7.96 7.90 7.83 7.78 7.73 7.68 7.63 7.58 7.53 7.47 7.40 7.34 7.28 7.25 7.22 7.20 7.18 7.15 7.11 7.07 7.03 6.99 6.96 6.94 6.92 6.91 6.89 6.87 6.86 6.86 6.86 6.88 6.90 6.93 6.96 6.99 7.02 7.03 7.04 7.04 7.03 7.03 7.02 7.00 6.97 6.94 6.90 6.85 6.81 6.76 6.71 6.67 6.64 6.62
8.12 8.13 8.14 8.16 8.17 8.19 8.22 8.25 8.29 8.33 8.37 8.40 8.41 8.40 8.37 8.32 8.27 8.23 8.19 8.16 8.14 8.13 8.13 8.13 8.14 8.15 8.18 8.22 8.26 8.30 8.34 8.36 8.37 8.37 8.38 8.38 8.38 8.37 8.35 8.32 8.29 8.25 8.20 8.16 8.11 8.04 7.98 7.91 7.85 7.80 7.76 7.71 7.67 7.62 7.57 7.51 7.45 7.39 7.35 7.32 7.29 7.27 7.25 7.22 7.18 7.14 7.10 7.07 7.04 7.02 7.01 6.99 6.97 6.96 6.94 6.93 6.93 6.94 6.96 6.99 7.02 7.05 7.08 7.10 7.11 7.11 7.11 7.10 7.08 7.06 7.02 6.98 6.93 6.89 6.84 6.79 6.75 6.71 6.69 6.67
8.11 8.11 8.12 8.13 8.14 8.15 8.17 8.21 8.25 8.29 8.33 8.36 8.37 8.36 8.34 8.30 8.27 8.23 8.20 8.18 8.16 8.15 8.15 8.14 8.15 8.16 8.18 8.22 8.27 8.31 8.35 8.37 8.39 8.40 8.40 8.41 8.42 8.41 8.39 8.35 8.31 8.26 8.21 8.15 8.09 8.03 7.97 7.91 7.85 7.81 7.78 7.75 7.71 7.66 7.61 7.56 7.50 7.45 7.42 7.39 7.37 7.36 7.33 7.30 7.26 7.22 7.18 7.15 7.12 7.11 7.09 7.07 7.06 7.04 7.02 7.02 7.02 7.02 7.04 7.06 7.09 7.12 7.15 7.17 7.18 7.18 7.17 7.16 7.14 7.12 7.08 7.03 6.99 6.94 6.89 6.85 6.81 6.78 6.75 6.74
8.11 8.11 8.11 8.11 8.11 8.13 8.15 8.18 8.22 8.27 8.30 8.32 8.33 8.33 8.31 8.29 8.27 8.24 8.23 8.21 8.20 8.19 8.19 8.18 8.18 8.19 8.21 8.25 8.29 8.33 8.36 8.39 8.40 8.41 8.42 8.43 8.44 8.43 8.40 8.36 8.30 8.24 8.18 8.12 8.05 7.99 7.93 7.88 7.84 7.81 7.79 7.77 7.74 7.71 7.66 7.60 7.55 7.51 7.48 7.47 7.45 7.44 7.42 7.38 7.34 7.30 7.26 7.23 7.21 7.19 7.17 7.15 7.13 7.12 7.11 7.10 7.11 7.12 7.13 7.15 7.17 7.20 7.22 7.23 7.23 7.23 7.22 7.21 7.20 7.17 7.13 7.09 7.04 7.00 6.96 6.92 6.88 6.85 6.82 6.81
8.12 8.12 8.11 8.11 8.11 8.12 8.14 8.17 8.21 8.25 8.28 8.30 8.30 8.30 8.29 8.28 8.27 8.26 8.25 8.25 8.25 8.25 8.25 8.25 8.24 8.25 8.26 8.28 8.31 8.34 8.37 8.39 8.40 8.41 8.42 8.43 8.43 8.42 8.39 8.34 8.27 8.20 8.12 8.05 7.99 7.93 7.88 7.84 7.81 7.80 7.80 7.79 7.77 7.74 7.70 7.65 7.60 7.57 7.55 7.54 7.53 7.52 7.50 7.47 7.43 7.38 7.34 7.31 7.28 7.26 7.24 7.22 7.20 7.19 7.18 7.19 7.20 7.21 7.22 7.24 7.26 7.27 7.28 7.28 7.28 7.27 7.26 7.25 7.23 7.21 7.18 7.14 7.10 7.06 7.02 6.99 6.95 6.91 6.88 6.86
8.14 8.13 8.13 8.12 8.12 8.13 8.14 8.17 8.21 8.24 8.27 8.28 8.28 8.28 8.27 8.27 8.26 8.27 8.27 8.29 8.30 8.31 8.31 8.31 8.31 8.30 8.30 8.31 8.33 8.35 8.36 8.37 8.38 8.39 8.40 8.41 8.41 8.39 8.35 8.29 8.21 8.13 8.05 7.98 7.91 7.86 7.82 7.79 7.78 7.78 7.79 7.80 7.79 7.76 7.73 7.69 7.65 7.62 7.60 7.60 7.59 7.59 7.57 7.54 7.50 7.46 7.41 7.38 7.35 7.32 7.30 7.28 7.26 7.25 7.25 7.26 7.28 7.29 7.31 7.32 7.33 7.34 7.34 7.33 7.31 7.30 7.28 7.27 7.26 7.24 7.21 7.19 7.15 7.12 7.08 7.04 6.99 6.95 6.92 6.90
8.16 8.15 8.14 8.14 8.13 8.14 8.16 8.18 8.21 8.24 8.25 8.26 8.26 8.26 8.25 8.25 8.26 8.27 8.29 8.31 8.33 8.35 8.36 8.36 8.36 8.35 8.34 8.34 8.34 8.35 8.35 8.35 8.35 8.36 8.37 8.37 8.36 8.33 8.28 8.21 8.13 8.05 7.97 7.89 7.83 7.79 7.76 7.74 7.74 7.76 7.78 7.79 7.79 7.77 7.74 7.71 7.68 7.66 7.65 7.65 7.65 7.65 7.63 7.60 7.56 7.52 7.47 7.43 7.39 7.36 7.34 7.32 7.30 7.30 7.31 7.33 7.35 7.37 7.39 7.40 7.40 7.40 7.39 7.37 7.34 7.32 7.30 7.28 7.27 7.25 7.24 7.21 7.18 7.15 7.11 7.06 7.01 6.97 6.93 6.90
8.17 8.17 8.16 8.15 8.15 8.15 8.17 8.19 8.21 8.23 8.24 8.24 8.24 8.24 8.24 8.24 8.25 8.27 8.30 8.32 8.35 8.37 8.39 8.39 8.39 8.38 8.37 8.36 8.35 8.34 8.33 8.32 8.32 8.32 8.32 8.31 8.29 8.26 8.20 8.13 8.05 7.96 7.88 7.81 7.76 7.72 7.70 7.69 7.70 7.72 7.74 7.76 7.77 7.76 7.74 7.71 7.70 7.69 7.68 7.68 7.69 7.69 7.68 7.65 7.61 7.56 7.50 7.46 7.42 7.39 7.36 7.34 7.33 7.33 7.35 7.37 7.40 7.43 7.45 7.46 7.46 7.45 7.43 7.40 7.37 7.34 7.31 7.29 7.27 7.26 7.24 7.22 7.19 7.15 7.11 7.06 7.00 6.95 6.91 6.89
8.19 8.18 8.17 8.17 8.16 8.17 8.18 8.19 8.21 8.22 8.22 8.22 8.21 8.21 8.21 8.22 8.24 8.26 8.29 8.32 8.34 8.36 8.38 8.39 8.39 8.39 8.38 8.37 8.35 8.33 8.31 8.30 8.28 8.28 8.27 8.25 8.22 8.18 8.12 8.04 7.96 7.88 7.80 7.73 7.68 7.65 7.64 7.64 7.65 7.67 7.70 7.72 7.73 7.72 7.71 7.70 7.70 7.70 7.70 7.71 7.71 7.71 7.70 7.67 7.63 7.58 7.52 7.47 7.43 7.39 7.37 7.35 7.35 7.36 7.38 7.41 7.44 7.47 7.49 7.50 7.50 7.49 7.47 7.44 7.40 7.36 7.33 7.29 7.27 7.25 7.23 7.21 7.17 7.13 7.08 7.02 6.97 6.92 6.88 6.86
8.20 8.19 8.18 8.17 8.17 8.17 8.18 8.19 8.20 8.21 8.21 8.20 8.18 8.18 8.18 8.20 8.22 8.24 8.27 8.29 8.31 8.33 8.35 8.36 8.37 8.38 8.38 8.37 8.35 8.33 8.30 8.27 8.25 8.24 8.22 8.19 8.15 8.10 8.03 7.96 7.88 7.80 7.73 7.66 7.62 7.59 7.59 7.59 7.60 7.63 7.65 7.67 7.68 7.68 7.69 7.69 7.69 7.70 7.71 7.72 7.72 7.72 7.70 7.67 7.63 7.57 7.51 7.46 7.42 7.39 7.36 7.35 7.35 7.37 7.39 7.43 7.47 7.50 7.52 7.53 7.53 7.52 7.50 7.47 7.43 7.39 7.34 7.30 7.27 7.24 7.21 7.17 7.13 7.08 7.02 6.97 6.92 6.87 6.84 6.82
8.19 8.18 8.18 8.17 8.17 8.17 8.18 8.19 8.19 8.19 8.18 8.17 8.15 8.14 8.15 8.16 8.19 8.21 8.23 8.25 8.27 8.29 8.30 8.32 8.34 8.35 8.36 8.36 8.34 8.31 8.28 8.25 8.22 8.20 8.17 8.13 8.08 8.03 7.96 7.89 7.81 7.74 7.67 7.61 7.57 7.55 7.54 7.55 7.57 7.59 7.61 7.63 7.64 7.65 7.66 7.67 7.69 7.71 7.72 7.72 7.72 7.71 7.69 7.65 7.60 7.55 7.49 7.44 7.39 7.36 7.35 7.34 7.34 7.36 7.40 7.44 7.48 7.51 7.54 7.55 7.54 7.53 7.51 7.48 7.45 7.40 7.35 7.30 7.26 7.21 7.17 7.12 7.06 7.00 6.95 6.90 6.86 6.82 6.80 6.79
8.17 8.17 8.16 8.16 8.16 8.17 8.18 8.18 8.18 8.17 8.16 8.13 8.11 8.10 8.11 8.12 8.15 8.17 8.19 8.21 8.22 8.23 8.25 8.27 8.29 8.31 8.33 8.33 8.32 8.29 8.26 8.22 8.19 8.15 8.12 8.07 8.02 7.96 7.90 7.83 7.76 7.69 7.63 7.58 7.54 7.52 7.52 7.53 7.54 7.56 7.58 7.60 7.61 7.63 7.65 7.67 7.69 7.71 7.73 7.73 7.72 7.70 7.66 7.61 7.56 7.50 7.44 7.40 7.36 7.33 7.32 7.31 7.33 7.35 7.39 7.44 7.48 7.52 7.54 7.55 7.54 7.53 7.51 7.48 7.44 7.39 7.34 7.28 7.23 7.17 7.11 7.05 6.98 6.93 6.87 6.83 6.80 6.77 6.76 6.75
8.14 8.14 8.14 8.14 8.15 8.16 8.17 8.17 8.17 8.15 8.13 8.10 8.07 8.06 8.06 8.08 8.10 8.13 8.15 8.16 8.18 8.19 8.20 8.22 8.24 8.27 8.28 8.29 8.28 8.26 8.22 8.19 8.15 8.11 8.07 8.02 7.97 7.92 7.86 7.80 7.73 7.67 7.61 7.56 7.53 7.52 7.51 7.52 7.53 7.55 7.57 7.58 7.60 7.62 7.64 7.67 7.70 7.72 7.73 7.73 7.71 7.67 7.62 7.56 7.50 7.44 7.39 7.34 7.31 7.29 7.28 7.28 7.30 7.34 7.38 7.43 7.47 7.51 7.53 7.53 7.52 7.51 7.48 7.45 7.41 7.36 7.31 7.24 7.18 7.11 7.04 6.97 6.91 6.85 6.80 6.77 6.74 6.73 6.72 6.72
8.11 8.11 8.12 8.13 8.14 8.16 8.16 8.16 8.15 8.13 8.10 8.07 8.04 8.02 8.01 8.03 8.05 8.08 8.10 8.12 8.13 8.14 8.16 8.18 8.20 8.23 8.24 8.25 8.24 8.21 8.18 8.14 8.10 8.06 8.02 7.98 7.93 7.88 7.83 7.77 7.72 7.66 7.61 7.57 7.54 7.52 7.52 7.52 7.53 7.55 7.56 7.58 7.60 7.62 7.64 7.67 7.70 7.73 7.74 7.72 7.69 7.64 7.58 7.51 7.44 7.38 7.33 7.29 7.26 7.25 7.25 7.26 7.28 7.32 7.37 7.42 7.47 7.50 7.51 7.51 7.50 7.48 7.44 7.41 7.36 7.32 7.26 7.19 7.12 7.05 6.98 6.91 6.84 6.79 6.75 6.72 6.70 6.69 6.69 6.70
8.09 8.10 8.11 8.12 8.14 8.15 8.16 8.16 8.14 8.12 8.08 8.05 8.01 7.99 7.98 7.99 8.01 8.04 8.06 8.08 8.10 8.11 8.13 8.15 8.18 8.20 8.21 8.21 8.19 8.17 8.14 8.10 8.06 8.03 7.99 7.95 7.91 7.86 7.81 7.76 7.71 7.66 7.62 7.58 7.55 7.54 7.53 7.53 7.54 7.55 7.57 7.58 7.60 7.62 7.65 7.68 7.71 7.73 7.74 7.72 7.68 7.62 7.55 7.47 7.40 7.33 7.28 7.25 7.22 7.22 7.22 7.24 7.27 7.31 7.36 7.42 7.46 7.49 7.50 7.50 7.48 7.45 7.41 7.37 7.32 7.27 7.21 7.15 7.08 7.00 6.93 6.86 6.80 6.75 6.72 6.69 6.67 6.67 6.67 6.68
8.08 8.09 8.10 8.12 8.14 8.15 8.16 8.15 8.14 8.11 8.07 8.03 8.00 7.97 7.96 7.96 7.98 8.01 8.04 8.06 8.08 8.10 8.12 8.14 8.16 8.18 8.19 8.19 8.17 8.14 8.11 8.08 8.04 8.00 7.97 7.93 7.89 7.85 7.81 7.76 7.71 7.67 7.62 7.59 7.56 7.55 7.54 7.54 7.54 7.55 7.57 7.59 7.61 7.63 7.65 7.68 7.71 7.73 7.73 7.71 7.67 7.60 7.53 7.45 7.37 7.31 7.26 7.22 7.20 7.20 7.21 7.23 7.26 7.31 7.36 7.41 7.46 7.48 7.50 7.49 7.47 7.43 7.39 7.34 7.29 7.24 7.18 7.12 7.05 6.98 6.90 6.84 6.78 6.74 6.70 6.68 6.66 6.66 6.67 6.67
